ply
format ascii 1.0
comment PCL generated
element vertex 1449
property float x
property float y
property float z
element camera 0
property float view_px
property float view_py
property float view_pz
property float x_axisx
property float x_axisy
property float x_axisz
property float y_axisx
property float y_axisy
property float y_axisz
property float z_axisx
property float z_axisy
property float z_axisz
property float focal
property float scalex
property float scaley
property float centerx
property float centery
property int viewportx
property int viewporty
property float k1
property float k2
end_header
-0.88605881 0.15644863 2.6510003
-0.85571378 0.16158754 2.6585002
-0.83678085 0.17530009 2.6530001
-0.77003568 0.16294901 2.6554
-1.8729388 0.19990057 2.6480002
-1.8423054 0.20029959 2.6532857
-1.8184285 0.2042436 2.664
-1.6548079 0.20652251 2.6530001
-1.6383749 0.18872719 2.6516666
-0.82048291 0.18917856 2.6507502
-0.77763826 0.18086028 2.6430001
-1.7820179 0.22478327 2.6472001
-1.666312 0.22546962 2.6554
1.7843033 -0.031011358 2.674
1.8087386 -0.031107038 2.6822503
1.7056293 -0.012129626 2.674
1.7257606 -0.010352751 2.6787143
1.7552636 -0.015115549 2.6892304
1.7841301 -0.012646066 2.6930666
1.8162279 -0.015991647 2.6877501
1.7591276 0.00045819467 2.674
1.7832543 0.00045819467 2.674
1.8063319 0.00045819467 2.674
-0.40008441 0.080209434 2.6894002
-0.99629438 0.11468444 2.6960001
-0.97567785 0.11449727 2.6916001
-0.9438405 0.11409952 2.68225
-0.48664522 0.11421651 2.6850002
-0.46377853 0.11143006 2.6834285
-0.43272325 0.10523658 2.6865714
-0.41396749 0.095257118 2.6850002
-1.6360052 0.13505211 2.6865714
-1.4851532 0.12053631 2.6850002
-1.4535576 0.12685612 2.6850002
-1.4282784 0.13317591 2.6850002
-1.3976663 0.14121605 2.6834285
-1.3751545 0.14621378 2.6923335
-1.3312569 0.14309072 2.6932502
-1.3068795 0.14250304 2.68225
-1.2749594 0.14242576 2.6874442
-1.2426288 0.14264268 2.6849999
-1.2164108 0.14435965 2.6776667
-1.1925006 0.14596488 2.6877501
-1.1422453 0.14641291 2.6960001
-1.1263812 0.14641291 2.6960001
-1.0953863 0.1456662 2.6822503
-1.0634183 0.14350116 2.6813333
-1.0322459 0.13453865 2.6872001
-1.0066608 0.12352297 2.6813335
-0.93357927 0.12568574 2.6872001
-0.92290097 0.14180146 2.6886666
-0.78054082 0.14641291 2.6960001
-0.76219422 0.137998 2.6806002
-0.73309672 0.12937367 2.6849999
-0.70187122 0.12374823 2.6863749
-0.67563897 0.12904932 2.6868334
-0.64345461 0.13992433 2.6932502
-0.62104404 0.13987671 2.6923335
-0.58010375 0.14601465 2.6886666
-0.55479866 0.14389943 2.6886671
-0.52773035 0.13317591 2.6850002
-0.50559598 0.12263429 2.6850002
-1.6561004 0.16732293 2.6923335
-1.6404816 0.15945944 2.6806002
-1.3587492 0.15424192 2.6850002
-1.3337194 0.15355298 2.68225
-1.1706877 0.15151206 2.674
-1.1549529 0.15151206 2.674
-1.1392182 0.15151206 2.674
-0.90504777 0.1518237 2.6795001
-0.89067125 0.15260278 2.6932502
-0.85478008 0.16476846 2.6850002
-0.78873688 0.1698256 2.6849999
-0.77735615 0.15213533 2.6850002
-1.9069014 0.19717844 2.6960001
-1.8768027 0.19701754 2.6938002
-1.8466173 0.2003513 2.6960001
-1.8226889 0.20543844 2.6795001
-1.6879748 0.20352414 2.6960001
-1.6681775 0.19595873 2.6795003
-0.80044299 0.1853305 2.6776667
-1.8043109 0.22482599 2.6850002
-1.6905739 0.22481953 2.6850002
1.7833639 -0.018644014 2.7060001
1.8139362 -0.019917859 2.7060001
-0.4220987 0.086786762 2.717
-0.41186652 0.07975471 2.7170002
-1.5147583 0.1155109 2.7154288
-1.0273829 0.11604568 2.7280002
-1.0056602 0.11191231 2.7214
-0.97626716 0.10929315 2.7197504
-0.94168627 0.1115808 2.7170002
-0.72880578 0.11604568 2.7280002
-0.70519811 0.11585851 2.7236001
-0.68706912 0.11604568 2.7280002
-0.5137018 0.11604568 2.7280002
-0.49628216 0.1117355 2.7170002
-0.46619999 0.10689495 2.7133334
-0.43941352 0.098283865 2.7252502
-1.6649445 0.13591559 2.7188337
-1.6496514 0.12784828 2.7060001
-1.4740769 0.12197288 2.7170002
-1.449737 0.12819476 2.7133334
-1.4214724 0.13462672 2.7142503
-1.3888755 0.14127253 2.7192001
-1.3623602 0.14166792 2.7148004
-1.3384602 0.1357096 2.7104001
-1.3030758 0.13460723 2.7138574
-1.2736648 0.1361461 2.7192001
-1.2455289 0.13600653 2.7206669
-1.2125454 0.14015929 2.7154288
-1.1834445 0.14486548 2.7148004
-1.1570847 0.14368957 2.7197499
-1.1246495 0.14144398 2.7225003
-1.0967841 0.14115824 2.7170002
-1.0641327 0.13602661 2.7170002
-1.0390288 0.12570083 2.7148004
-0.93106771 0.1256772 2.7280002
-0.92139024 0.13623892 2.7170005
-0.89896262 0.14815076 2.7280002
-0.78853142 0.13869897 2.7192004
-0.76600271 0.12764305 2.7170005
-0.73659462 0.12286981 2.7133334
-0.67370921 0.12752865 2.7185719
-0.61074185 0.14115824 2.717
-0.5796206 0.14695598 2.7060001
-0.55427319 0.13902652 2.7170002
-0.52763116 0.12517044 2.7170002
-1.6843371 0.16503979 2.7243335
-1.6728241 0.16645318 2.7126002
-0.87756342 0.15363686 2.7115002
-0.85048389 0.17028506 2.7126002
-0.8122012 0.17952898 2.7170002
-0.800053 0.16405603 2.7148001
-1.9327456 0.19309783 2.7279999
-1.9024374 0.19263066 2.7214
-1.8845882 0.19309783 2.7280002
-1.8530836 0.19983247 2.7148001
-1.697539 0.19151317 2.7185719
-1.8354207 0.21150459 2.7170002
-1.8250815 0.22460616 2.7206669
-1.7037897 0.21701753 2.7060001
-0.43046182 0.081381157 2.7500002
-0.41262272 0.071385279 2.7390001
-1.5104866 0.11466796 2.7463334
-1.0385939 0.11466796 2.7463334
-1.0186317 0.1100667 2.7390001
-0.93482196 0.1100667 2.7390001
-0.92700285 0.11351764 2.7445002
-0.76628989 0.11686455 2.7472503
-0.73808354 0.11451199 2.742667
-0.71202844 0.11050874 2.7500002
-0.68613726 0.11698154 2.7500002
-0.52361828 0.11466796 2.7463334
-0.49581116 0.1054396 2.7445002
-0.47064486 0.10361979 2.7390001
-0.44251412 0.094131619 2.7445002
-1.6893015 0.13617134 2.7456002
-1.6762159 0.12296052 2.7390001
-1.4554832 0.12703137 2.7434001
-1.4151163 0.13585432 2.7390001
-1.3957756 0.13585432 2.7390001
-1.3690171 0.12992713 2.7500002
-1.3345299 0.12940742 2.7390001
-1.3064693 0.12982318 2.7478004
-1.2751617 0.12992713 2.7500002
-1.2525069 0.12992713 2.7500002
-1.2201082 0.13603619 2.742667
-1.1830277 0.14230122 2.7390001
-1.1219311 0.13626352 2.7472501
-1.0960723 0.13626352 2.7472501
-1.0691196 0.1296608 2.7445002
-0.92216766 0.13288425 2.7445002
-0.89087605 0.14894725 2.742667
-0.79799294 0.13250083 2.7438891
-0.67319173 0.12561195 2.7500002
-0.64857554 0.13599072 2.74175
-0.6040104 0.14258698 2.7445002
-0.57609975 0.14287272 2.7500002
-0.55593914 0.13406046 2.7463334
-0.53511387 0.12296052 2.7390001
-1.7153118 0.1752367 2.7500002
-1.7021914 0.16518998 2.7445002
-0.87532407 0.15550667 2.7445002
-0.86241734 0.16518998 2.7445002
-0.81881231 0.16853027 2.7463334
-0.80588388 0.15519503 2.7390001
-1.9548053 0.18818229 2.7500002
-1.9366943 0.18799411 2.7472501
-1.8749762 0.19588396 2.7445002
-1.8577132 0.20760067 2.7500002
-1.725404 0.19806121 2.7434001
-1.7084504 0.18098265 2.7390001
-1.84261 0.22486146 2.7500002
-1.741203 0.21407348 2.7500002
-1.734238 0.22288753 2.7390001
-0.43207341 0.074871793 2.7728
-0.41774476 0.065744475 2.7730002
-1.5173231 0.11242235 2.7706668
-1.4912702 0.11794929 2.7727499
-1.081237 0.11842785 2.7840002
-1.0605451 0.11467935 2.7727499
-1.0333091 0.10705968 2.7726669
-1.0073516 0.10479257 2.77
-0.97482407 0.10445209 2.7610002
-0.94313842 0.10454287 2.7633998
-0.92166215 0.11335286 2.774286
-0.81804514 0.11608759 2.7803335
-0.79658395 0.11472605 2.7740002
-0.76428318 0.11152141 2.7752004
-0.73147947 0.10757364 2.7748001
-0.70014811 0.10956015 2.7670002
-0.67961997 0.11810172 2.7763336
-0.55373472 0.11842785 2.7840002
-0.52819037 0.11001229 2.7704003
-0.49486285 0.1000925 2.7755003
-0.4643046 0.096976325 2.7704003
-0.44843039 0.091454707 2.7610002
-1.712253 0.13318944 2.773
-1.7059263 0.14344421 2.7610002
-1.4618376 0.12576863 2.7726002
-1.4281707 0.13090041 2.7706006
-1.3965619 0.12837377 2.7726002
-1.3641498 0.12448686 2.7730002
-1.333324 0.12435219 2.77
-1.3054074 0.12448686 2.7730002
-1.2760363 0.12448686 2.7730002
-1.2454766 0.12820929 2.7752225
-1.2081331 0.13724312 2.7670002
-1.1862186 0.13734232 2.7690003
-1.1551169 0.1360435 2.7648335
-1.1235336 0.13111773 2.7752004
-1.0931507 0.12772594 2.7726669
-1.0723042 0.12394815 2.7610002
-0.91420156 0.13566104 2.7703333
-0.89448154 0.14463913 2.7840002
-0.8219592 0.13600111 2.7714446
-0.80585814 0.12394815 2.7610002
-0.66786367 0.12663813 2.7726669
-0.64618731 0.13427725 2.7730002
-0.62581575 0.13808632 2.7840002
-0.58408421 0.13968611 2.7726669
-0.55401939 0.12648293 2.7690003
-1.9644058 0.16961946 2.7792859
-1.9450468 0.17670232 2.7730002
-1.7463484 0.17412683 2.7840002
-1.7272748 0.16361545 2.7726667
-0.87962818 0.15416321 2.7785001
-0.85637033 0.17118266 2.774286
-0.83166778 0.16287322 2.7758574
-1.967891 0.18322925 2.7730002
-1.939633 0.1848406 2.7692857
-1.9076272 0.1896079 2.7708337
-1.8822631 0.19871829 2.7766666
-1.7529094 0.19460502 2.7758574
-1.731921 0.18568566 2.7610002
-1.8675756 0.21672021 2.7840002
-0.45687604 0.08157967 2.8130002
-0.44174135 0.071342357 2.8010001
-1.7450801 0.11991671 2.8190002
-1.5473552 0.10504688 2.8118002
-1.5113003 0.11291984 2.8100002
-1.4832624 0.11940624 2.8070002
-1.4133198 0.11991671 2.8190002
-1.3937731 0.11966147 2.8130002
-1.3637733 0.11906592 2.799
-1.3337756 0.11743754 2.8052859
-1.3048675 0.11608864 2.8070002
-1.2734393 0.1163464 2.8059092
-1.2467536 0.11953385 2.8100002
-1.1479117 0.11991671 2.8190002
-1.1280061 0.11991671 2.8190002
-1.1008662 0.11617842 2.809
-1.0685127 0.10864222 2.8022001
-1.0372574 0.10287473 2.8070002
-1.000525 0.099869192 2.8150003
-0.97350973 0.09947893 2.8040001
-0.9439804 0.099500224 2.8046002
-0.9147439 0.11110265 2.806
-0.89670521 0.11753482 2.8150003
-0.85630506 0.11685831 2.8138576
-0.82792038 0.11025081 2.8055
-0.79786175 0.10641932 2.8130002
-0.76974624 0.10619233 2.8070002
-0.74670529 0.10573835 2.7950001
-0.70444691 0.10599943 2.8022001
-0.67536706 0.11634859 2.8130004
-0.57728422 0.11991671 2.8190002
-0.55429077 0.11066321 2.809
-0.52667826 0.10051711 2.8070004
-0.49596134 0.094373651 2.8094001
-0.47141618 0.092779659 2.8010001
-1.9917747 0.14630166 2.8160002
-1.9773122 0.14645752 2.8190002
-1.7550329 0.14313993 2.8190002
-1.7337248 0.13547723 2.7980001
-1.4506276 0.1254745 2.7950001
-1.4243128 0.1254745 2.7950001
-1.4078661 0.1254745 2.7950001
-1.2370923 0.12722121 2.8046002
-1.2198483 0.13307372 2.8166003
-1.1839274 0.1294443 2.8100002
-1.1592034 0.12853695 2.8046002
-1.1249813 0.1254745 2.7950001
-0.90899342 0.12938768 2.7984288
-0.8874104 0.13699579 2.8122501
-0.85655993 0.13606712 2.8100004
-0.83551794 0.12876385 2.7950001
-0.66259432 0.12574385 2.8010001
-0.64307046 0.131519 2.8070002
-0.60984457 0.13892952 2.8010001
-0.58456802 0.13140085 2.8094001
-0.56579065 0.1254745 2.7950001
-1.9835033 0.15507871 2.7950001
-1.9604659 0.15923433 2.8032498
-1.9400829 0.1712085 2.8104284
-1.7790457 0.1716423 2.8150003
-1.7562997 0.16289766 2.8025002
-0.87708104 0.15409279 2.8070002
-0.85795945 0.16092874 2.8109999
-1.9311494 0.18534367 2.8050003
-1.9015683 0.19527435 2.8121431
-1.8815334 0.20441905 2.7950001
-1.788654 0.19786231 2.8110001
-1.7696953 0.18797226 2.7950001
-0.49503282 0.087448396 2.8420002
-0.4687171 0.07952109 2.8380003
-0.43965381 0.060434777 2.8300002
-1.5386522 0.10728943 2.8360002
-1.5052762 0.11396465 2.8360002
-1.4114724 0.11420576 2.8420002
-1.394749 0.11420576 2.8420002
-1.3622154 0.11372354 2.8300002
-1.3363252 0.1116545 2.8340003
-1.3022454 0.10599697 2.8372002
-1.2763262 0.10489443 2.8390005
-1.2463446 0.11176166 2.8366671
-1.2174816 0.11420576 2.8420002
-1.1706561 0.11420576 2.8420002
-1.1540293 0.11388428 2.8340003
-1.1253521 0.11248212 2.8324001
-1.0939946 0.10721377 2.8340003
-1.0669713 0.10082708 2.8420002
-1.036932 0.10040135 2.8300002
-1.0191691 0.10040135 2.8300002
-0.97666532 0.094137736 2.8420002
-0.95022321 0.093839623 2.8330002
-0.91413373 0.10457395 2.8348002
-0.88261664 0.11372354 2.8300002
-0.85111177 0.10561711 2.8360002
-0.82281041 0.10082708 2.8420002
-0.79687804 0.10072066 2.8390002
-0.76434809 0.10061422 2.8360002
-0.73607254 0.10040135 2.8300002
-0.70424998 0.10395183 2.8360002
-0.67692381 0.11181524 2.8380003
-0.5774349 0.11396465 2.8360002
-0.55631602 0.10238592 2.8390002
-0.52774507 0.094005235 2.8380003
-2.0116723 0.14036791 2.8300002
-1.9941449 0.1384688 2.8366671
-1.9620961 0.14293548 2.8370006
-1.9354154 0.13801123 2.840286
-1.9121143 0.13614251 2.8411434
-1.7760414 0.14430779 2.8420002
-1.7610363 0.12721588 2.8340003
-1.4754541 0.12038463 2.8300002
-1.4545976 0.12058882 2.8348002
-1.4288265 0.12038463 2.8300002
-1.2345444 0.122605 2.8300002
-1.2175992 0.12390661 2.8345001
-1.1876905 0.12058882 2.8348002
-1.1657131 0.12038463 2.8300002
-0.88594717 0.12482537 2.8300002
-0.66226631 0.1208951 2.8420002
-0.64644819 0.1260311 2.8372002
-0.61617279 0.13370682 2.8300002
-0.59369695 0.12722529 2.8340003
-1.9517224 0.15369011 2.8300002
-1.932134 0.16231067 2.8332007
-1.9177446 0.16188963 2.840286
-1.8128328 0.17218004 2.8420002
-1.7942029 0.16419171 2.8390002
-0.85930282 0.1603512 2.8300002
-1.9258149 0.18071683 2.8360002
-1.912932 0.19323081 2.8400002
-1.8141432 0.191672 2.8375003
-0.45388487 0.054685745 2.878
-0.44095564 0.054343723 2.8600001
-0.97278643 0.088309966 2.8700001
-0.95382947 0.088433035 2.8739998
-0.57581824 0.088556111 2.878
-0.55506158 0.082232602 2.8725457
-0.52569687 0.081977807 2.8685715
-0.49488604 0.077079691 2.8713334
-0.4661774 0.066941023 2.8642859
-1.7795687 0.10525019 2.8720002
-1.7667465 0.10797039 2.8540001
-1.5704613 0.098900713 2.8636003
-1.5330669 0.10831087 2.8630002
-1.5144746 0.11178315 2.8660002
-1.4864273 0.11508983 2.8640003
-1.457121 0.1151702 2.8660002
-1.4267224 0.11178315 2.8660002
-1.3930357 0.10842437 2.8660002
-1.3646331 0.10831088 2.8630002
-1.3345394 0.10172321 2.8677144
-1.3057894 0.097811677 2.8659999
-1.2733854 0.097304396 2.8700001
-1.2442502 0.10028695 2.8616364
-1.2165151 0.10728829 2.8660002
-1.1858091 0.11003996 2.8645
-1.1516154 0.10688796 2.8612001
-1.1231601 0.10503733 2.8660002
-1.0939312 0.10146567 2.8600001
-1.0229071 0.095330186 2.878
-1.003757 0.094800211 2.8620002
-0.93637401 0.094800211 2.8620002
-0.9147172 0.10174007 2.868
-0.88169247 0.10539553 2.8625715
-0.85067427 0.097699232 2.8684001
-0.82570666 0.096435212 2.8708
-0.79269671 0.10125281 2.8540001
-0.73061448 0.095197685 2.8740003
-0.70570242 0.10009146 2.8690002
-0.6746105 0.11111705 2.8660002
-0.65033305 0.11565241 2.878
-0.60630161 0.11565241 2.878
-0.58305418 0.10552119 2.8659999
-0.56044698 0.096413359 2.8600001
-2.0457923 0.12920056 2.878
-2.0254424 0.13081205 2.8711431
-1.990024 0.12948744 2.8660002
-1.9640508 0.12708862 2.8560002
-1.9346861 0.12140556 2.8540001
-1.9006244 0.13551876 2.8626404
-1.888634 0.1413939 2.878
-1.8086997 0.14274871 2.878
-1.790206 0.1352717 2.8636003
-0.64114583 0.12305535 2.8612001
-0.615973 0.1250196 2.8600001
-0.5978868 0.12140556 2.8540001
-1.9212509 0.17178744 2.8540001
-1.9053526 0.16574264 2.8655002
-1.8775126 0.16566437 2.8773329
-1.8452799 0.16546424 2.8694289
-1.8151186 0.16007508 2.8591428
-1.9216951 0.18435793 2.858
-1.912068 0.19304283 2.8704998
-1.8764404 0.19016722 2.878
-1.8445904 0.19480857 2.8608575
-0.46273977 0.054932762 2.891
-0.43984145 0.048227973 2.8970001
-1.3256083 0.089325368 2.9030001
-1.3040304 0.089251518 2.9006
-1.2730408 0.089233056 2.9000001
-1.2538626 0.089325368 2.9030001
-0.99898267 0.089140743 2.8970001
-0.9702965 0.082492456 2.9030001
-0.94441819 0.089140743 2.8970001
-0.57849878 0.078261949 2.8982
-0.55546087 0.066937037 2.8955002
-0.52506936 0.065267906 2.8970001
-0.49598917 0.064800158 2.8978574
-0.47832635 0.061993696 2.9030001
-1.9071188 0.10887128 2.8958001
-1.8032603 0.11277248 2.891
-1.7967677 0.099361882 2.8970001
-1.5751568 0.099368945 2.8970001
-1.5144048 0.10964254 2.8982
-1.4861817 0.10982413 2.9030001
-1.454338 0.10948364 2.8940001
-1.3973538 0.10299121 2.9030001
-1.3631994 0.1000026 2.8958001
-1.3405426 0.095760792 2.891
-1.2350702 0.095760792 2.891
-1.2159201 0.099262506 2.8940001
-1.1863847 0.10128404 2.8934
-1.1545482 0.10256547 2.891
-1.1364024 0.10256547 2.891
-1.0967054 0.096158281 2.9030001
-1.068258 0.096058905 2.9000001
-1.0425774 0.095893286 2.8950002
-0.91765565 0.098161519 2.8950002
-0.88475728 0.097660705 2.8970001
-0.86421549 0.095760792 2.891
-0.79747373 0.095919788 2.8958001
-0.76403224 0.095999278 2.8982
-0.70576739 0.097660713 2.8970001
-0.67535114 0.10691502 2.8982
-0.64441234 0.11299947 2.8970001
-0.61681557 0.11059763 2.8978572
-0.59057945 0.098161519 2.8950002
-2.0430646 0.12348995 2.9030001
-2.0293989 0.12348995 2.9030001
-2.0074005 0.12297948 2.891
-1.8929844 0.12993404 2.8944285
-1.8802979 0.13942409 2.8970001
-1.8432018 0.14228049 2.9030001
-1.8185196 0.13271587 2.8958001
-1.8747095 0.15019818 2.891
-1.8471558 0.15044755 2.8958001
-1.906171 0.1980409 2.8940003
-1.8849164 0.20463556 2.891
-0.55055743 0.055553477 2.923667
-0.52331889 0.055586409 2.9254003
-0.49278325 0.055635814 2.9280002
-0.46367091 0.050297026 2.9182501
-1.6089649 0.086264029 2.9150002
-1.3346312 0.08579956 2.9228003
-1.3055913 0.082956582 2.9193335
-1.2746395 0.082956582 2.9193335
-1.2418928 0.089694612 2.9150002
-1.0223355 0.089694612 2.9150002
-1.0074011 0.086448736 2.9215002
-0.97430736 0.082833447 2.9150002
-0.94555116 0.086448736 2.9215002
-0.85423702 0.089694612 2.9150002
-0.83022296 0.089694612 2.9150002
-0.60380453 0.089694612 2.9150002
-0.59053653 0.075272575 2.9215002
-0.56949872 0.062249959 2.9150002
-2.0225956 0.10918871 2.9228003
-1.9061486 0.10951308 2.9205718
-1.8366768 0.11421579 2.9280002
-1.8209232 0.10584753 2.9193335
-1.6058029 0.090094618 2.9280002
-1.5781485 0.098986365 2.9193335
-1.5523781 0.10376284 2.9247503
-1.4544094 0.10364754 2.9215002
-1.4271442 0.10341694 2.9150002
-1.3887124 0.096986383 2.9280002
-1.3649771 0.093325198 2.9215002
-1.2336477 0.090094618 2.9280002
-1.2144481 0.096555769 2.9150002
-1.1835728 0.096555769 2.9150002
-1.1547356 0.096728012 2.9202001
-1.1269358 0.096699305 2.9193335
-1.0337865 0.090094618 2.9280002
-0.91391349 0.096699305 2.9193335
-0.88633454 0.091709912 2.9247503
-0.84081721 0.090094618 2.9280002
-0.8270337 0.090094618 2.9280002
-0.69643021 0.096555769 2.9150002
-0.6748091 0.10240755 2.9254003
-0.64344835 0.10601146 2.923667
-0.61451179 0.10085084 2.9202001
-2.0720935 0.12400042 2.9150002
-2.0618017 0.12400042 2.9150002
-1.8937032 0.12400042 2.9150002
-1.8771883 0.13333422 2.9230003
-1.8475893 0.13383949 2.9202001
-0.5786159 0.053948451 2.9616668
-0.55610335 0.050548039 2.9532001
-0.52479321 0.049160235 2.9530001
-0.49754155 0.049214341 2.95625
-0.4654901 0.04408665 2.96275
-1.6198548 0.083572276 2.9410002
-1.3640124 0.081832469 2.9616668
-1.3371712 0.077023864 2.9558001
-1.3052319 0.073133439 2.9548888
-1.2746972 0.07691922 2.9513333
-1.2483003 0.082928129 2.9534285
-1.2164974 0.084282674 2.9660001
-1.0275011 0.084097967 2.9595001
-1.0055648 0.078784466 2.9565001
-0.97314948 0.076967873 2.9532001
-0.94626552 0.081775635 2.959667
-0.91106969 0.084282674 2.9660001
-0.88719618 0.084005617 2.95625
-0.86315203 0.084036402 2.9573333
-0.61511153 0.078007415 2.955143
-0.59655994 0.0663945 2.947
-2.1083462 0.1191887 2.9660001
-2.082263 0.11705159 2.9562502
-2.0536942 0.10772584 2.9534285
-1.9040644 0.1111552 2.9523847
-1.8740772 0.11582798 2.9567142
-1.847068 0.099793352 2.9532857
-1.6056515 0.093314074 2.9573333
-1.5847582 0.098029777 2.9595001
-1.5402477 0.10433936 2.9410002
-1.5172565 0.1044245 2.9434001
-1.4836168 0.10190165 2.9510002
-1.4540124 0.098137431 2.96275
-1.4229759 0.097681977 2.9490001
-1.394906 0.093181573 2.9533336
-1.3706498 0.090494633 2.9410002
-1.2322025 0.090494633 2.9410002
-1.2148967 0.090494633 2.9410002
-1.1847007 0.090568483 2.9434001
-1.1568584 0.091103874 2.9608002
-1.1239964 0.091263875 2.9660001
-1.0960716 0.091263868 2.9660003
-1.0665965 0.091130532 2.9616668
-1.0452988 0.090494633 2.9410002
-0.93454105 0.090494633 2.9410002
-0.91910648 0.090679251 2.947
-0.89992929 0.090494633 2.9410002
-0.8202669 0.090874128 2.9533336
-0.75399262 0.091263875 2.9660001
-0.73256278 0.090771556 2.95
-0.70148146 0.090796173 2.9507999
-0.67101955 0.09652397 2.9491665
-0.64301664 0.094340004 2.9533336
-0.62303483 0.093955815 2.9410002
-1.876104 0.12749897 2.9430001
-1.8552151 0.12510644 2.9410002
-0.60566926 0.056851897 2.9920001
-0.58987087 0.052002478 2.9833336
-0.55285126 0.042767093 2.9920001
-0.52820289 0.042767093 2.9919999
-0.48594844 0.042767093 2.9920001
-0.47682524 0.042581275 2.9790001
-1.3900512 0.082550891 2.9876668
-1.3632652 0.074288487 2.9855001
-1.3427829 0.070628487 2.9790001
-1.3033377 0.06613902 2.9876668
-1.2798733 0.070833959 2.9876668
-1.2543528 0.077809691 2.9855001
-1.2130644 0.084652089 2.9790001
-1.1924016 0.084929153 2.98875
-1.0364974 0.081315592 2.9855001
-1.0000437 0.070936695 2.9919999
-0.97539532 0.070936695 2.9920001
-0.93989378 0.079562642 2.9855001
-0.91720921 0.079091258 2.9898336
-0.89088655 0.077979095 2.9920001
-0.85090894 0.08489836 2.9876668
-0.71834767 0.085021503 2.9920001
-0.64113194 0.080208518 2.9876668
-0.6179589 0.066046484 2.9833336
-2.0805333 0.10250455 2.98875
-1.9304941 0.096123219 2.9868004
-1.9037271 0.1056875 2.9790001
-1.8796551 0.1002503 2.9842002
-1.612735 0.091863893 2.9855001
-1.5747607 0.098934062 2.9868
-1.5176603 0.099106297 2.9920001
-1.4935366 0.098675691 2.9790001
-1.4225879 0.092063896 2.9920001
-1.409395 0.09166389 2.9790001
-1.0868521 0.09166389 2.9790001
-0.81339175 0.09166389 2.9790001
-0.79317379 0.091963895 2.98875
-0.76949799 0.091863893 2.9855001
-0.6801675 0.09166389 2.9790001
-0.65913212 0.09166389 2.9790001
-0.6141178 0.054841798 3.0103333
-0.58104849 0.043029144 3.0103333
-0.51652372 0.042967204 3.006
-0.50237298 0.042967204 3.0059998
-0.47612178 0.036047075 3.0190001
-1.944249 0.085665606 3.0146668
-1.8902062 0.085788742 3.0190001
-1.6429157 0.077132188 3.0138001
-1.4150937 0.085419327 3.006
-1.3998955 0.07868278 3.0190001
-1.3600184 0.066736795 3.0146668
-1.333727 0.064193264 3.006
-1.3029113 0.064332068 3.0125003
-1.2700489 0.071268618 3.006
-1.2417474 0.078343973 3.006
-1.2204822 0.078569844 3.0146668
-1.1780692 0.085419327 3.006
-1.1664276 0.085604034 3.0125
-1.0801277 0.085788742 3.0190001
-1.0671738 0.085604034 3.0125
-1.035243 0.074960403 3.0125
-1.0139711 0.067869753 3.0125
-0.97215128 0.066736795 3.0146668
-0.94689113 0.071576834 3.0190001
-0.88471401 0.07868278 3.0190001
-0.8456313 0.085788742 3.0190001
-0.73799139 0.085665606 3.0146668
-0.70552754 0.085604034 3.0125003
-0.67334425 0.084145904 3.0112002
-0.64741778 0.074806295 3.006
-0.62972939 0.064193264 3.006
-2.1424675 0.11421255 3.0190001
-2.1107426 0.10852188 3.0092499
-2.0962789 0.092894688 3.0190001
-1.9290078 0.093989745 3.0085998
-1.910946 0.096232362 3.0125
-1.8891424 0.092494674 3.006
-1.60838 0.092761345 3.0146668
-1.5636759 0.099570028 3.006
-1.5495253 0.099570028 3.0059998
-1.5064849 0.092894688 3.0190001
-1.4887199 0.092894688 3.0190001
-1.4540081 0.092494674 3.006
-1.4363196 0.092494674 3.006
-0.80661321 0.092494674 3.006
-1.3550594 0.057877969 3.0460002
-1.3357203 0.057816215 3.0427504
-1.3192118 0.057877969 3.0460002
-0.63810903 0.057877969 3.0460002
-0.61333346 0.048246488 3.041667
-0.57358348 0.036369458 3.0460002
-0.55448925 0.036291845 3.0395002
-0.52640796 0.036330651 3.0427504
-0.49113417 0.036369458 3.0460002
-0.47119081 0.036214236 3.0330002
-1.9331622 0.086278923 3.0362504
-1.9022152 0.080604851 3.0382001
-1.6562138 0.068493411 3.0395002
-1.6361628 0.083546542 3.0408003
-1.4482629 0.08655598 3.0460002
-1.4250746 0.081540242 3.0373335
-1.3936976 0.069724403 3.041667
-1.3706928 0.064769857 3.0330002
-1.2913494 0.064908668 3.0395002
-1.2698945 0.070270494 3.0395002
-1.2546864 0.072216973 3.0460002
-1.2099353 0.079273544 3.041667
-1.1973304 0.07938648 3.0460002
-1.1541803 0.086278923 3.0362504
-1.0969573 0.08655598 3.0460002
-1.0624301 0.079217076 3.0395002
-1.0348215 0.067437306 3.0460002
-0.99946976 0.064769857 3.0330002
-0.96651906 0.064954937 3.041667
-0.94744116 0.06733457 3.041667
-0.91933078 0.072062865 3.0395002
-0.87640554 0.079217076 3.0395002
-0.84241384 0.086186573 3.0330002
-0.76195359 0.086371273 3.0395002
-0.67538404 0.077347644 3.0362504
-0.65059161 0.067242034 3.0373335
-2.1437049 0.1080645 3.0460002
-2.1263263 0.10074124 3.041667
-1.6015176 0.093325473 3.0330002
-1.5732628 0.093485475 3.0382001
-1.5442399 0.093458809 3.0373335
-1.5241793 0.093325473 3.0330002
-1.3819864 0.058410004 3.0740001
-1.3599871 0.053033475 3.0775001
-1.3353697 0.05132997 3.0833333
-1.3168458 0.058410004 3.0740001
-1.0261734 0.058543012 3.0810001
-1.0042294 0.058321331 3.0693333
-0.9758808 0.058356799 3.0712001
-0.66144437 0.058676019 3.0880001
-0.64299709 0.053497721 3.0693333
-0.61259931 0.041516397 3.0740001
-0.5870235 0.036536619 3.0600002
-0.51139766 0.036536619 3.0600002
-0.50419521 0.036536619 3.0600002
-2.1417041 0.087351635 3.0740001
-1.9343665 0.075532004 3.0722499
-1.6605277 0.069263108 3.0740001
-1.6341733 0.08217407 3.0739999
-1.6062577 0.087351628 3.0740001
-1.5737246 0.087351635 3.0740001
-1.5447831 0.087351635 3.0740001
-1.5141113 0.087252185 3.0705001
-1.4860029 0.087086417 3.0646667
-1.4598788 0.08362624 3.0705001
-1.4189072 0.072548896 3.0600002
-1.4036926 0.065645412 3.0740001
-1.2937917 0.065944381 3.0880001
-1.2865233 0.065944381 3.0880001
-1.2433405 0.072814435 3.0712001
-1.1938438 0.080116227 3.0740001
-1.1452138 0.086953811 3.0600002
-1.1272078 0.086953811 3.0600002
-1.0957131 0.082395419 3.0693333
-1.0652431 0.070568673 3.0786667
-1.0491576 0.065645412 3.0740001
-0.93805504 0.065720156 3.0775001
-0.90599108 0.072714858 3.0670002
-0.87386727 0.080298662 3.0810001
-0.84271067 0.086953811 3.0600002
-0.83760786 0.087550551 3.0810001
-0.78144753 0.087351635 3.0740001
-0.73443377 0.080116227 3.0740001
-0.70384449 0.0781167 3.0670002
-0.67574322 0.069171898 3.0705001
-2.1717758 0.1071166 3.0705001
-2.1574509 0.098420128 3.0810001
-0.58676493 0.029870996 3.1160002
-0.55591869 0.02979047 3.1076002
-0.53542513 0.029870996 3.1160002
-0.49141952 0.029870996 3.1160002
-1.397705 0.055407915 3.1090002
-1.3684174 0.048090126 3.1090002
-1.3391956 0.048090126 3.1090002
-1.3135586 0.05907505 3.1090002
-1.0334914 0.054152187 3.1066668
-1.0020896 0.051733948 3.1076002
-0.96914166 0.056674629 3.1113336
-0.6659261 0.055407915 3.1090002
-0.64033848 0.044439472 3.1090002
-0.61610204 0.03720526 3.1160002
-1.6589695 0.070816711 3.1104002
-1.6306769 0.078522854 3.1066668
-1.6047713 0.081137881 3.1132002
-1.5842251 0.081210852 3.1160002
-1.4818842 0.081028417 3.1090002
-1.4526131 0.073710628 3.1090002
-1.4306598 0.066392839 3.1090002
-1.2796648 0.066343009 3.1066668
-1.2358475 0.07387659 3.1160002
-1.2248461 0.07387659 3.1160002
-1.184605 0.080967605 3.1066668
-1.1221664 0.081210852 3.1160002
-1.1013262 0.077361286 3.1090002
-1.0781608 0.06654232 3.1160002
-0.93147546 0.06654232 3.1160002
-0.90376246 0.073710628 3.1090002
-0.86887991 0.080845982 3.1020002
-0.83058453 0.088346213 3.1090002
-0.80132985 0.088346213 3.1090002
-0.76474094 0.081028417 3.1090002
-0.70689374 0.071221538 3.1066668
-0.68634707 0.066243351 3.1020002
-2.2039704 0.10321365 3.1160002
-2.1758151 0.095448606 3.1020002
-1.4179015 0.055915326 3.1375003
-1.3916985 0.044954047 3.1450002
-1.3675686 0.044811111 3.1350002
-1.3361795 0.052356571 3.1450002
-1.3176733 0.059759095 3.1450002
-1.0642928 0.057196584 3.1400003
-1.0375718 0.048530452 3.1375003
-1.0141697 0.044954047 3.1450002
-0.98085845 0.052356571 3.1450002
-0.95635587 0.059616588 3.1375003
-0.69586122 0.059759095 3.1450002
-0.67780793 0.055790465 3.1300001
-0.64774483 0.041252784 3.1450002
-0.61590058 0.032556806 3.1400003
-0.58940125 0.030005204 3.1300001
-0.52309626 0.030005204 3.1300001
-0.50836188 0.030005204 3.1300001
-2.2004244 0.078265406 3.1450002
-1.6602842 0.066948064 3.1350002
-1.631279 0.074350759 3.1360002
-1.6137743 0.074564144 3.1450002
-1.5729249 0.081575729 3.1300001
-1.5441929 0.081810288 3.1390004
-1.5127279 0.08170604 3.1350002
-1.4806993 0.074386328 3.1375003
-1.4583212 0.06716162 3.1450002
-1.2739053 0.067001455 3.1375003
-1.222982 0.074208513 3.1300001
-1.177902 0.081771195 3.1375003
-1.1548178 0.081966668 3.1450002
-1.100352 0.070685066 3.1375003
-0.91571259 0.070702717 3.1375003
-0.82146859 0.088942945 3.1300001
-0.78469151 0.081966668 3.1450002
-0.73793429 0.074327059 3.1350002
-0.70727676 0.066841289 3.1300001
-2.2249236 0.10367738 3.1300001
-2.202822 0.096310161 3.1300001
-1.6730064 0.052589636 3.1590002
-1.4269438 0.04910396 3.1740003
-1.3935246 0.039711881 3.1702499
-1.360055 0.042806845 3.1690004
-1.3372943 0.05283935 3.1740003
-1.0646107 0.04910396 3.1740003
-1.0360268 0.045261368 3.1665001
-1.0024524 0.045261364 3.1665001
-0.9740715 0.052589636 3.1590002
-0.69480699 0.05283935 3.1740003
-0.67665243 0.048871897 3.1590002
-0.65218174 0.037808236 3.1665001
-0.62756991 0.030427003 3.1740003
-2.2263174 0.082722485 3.1740003
-1.6612778 0.064607471 3.1650002
-1.6361256 0.067780912 3.1740005
-1.6016667 0.075038321 3.1650002
-1.5091224 0.075251698 3.1740003
-1.4792392 0.067780912 3.1740003
-1.4425066 0.060025115 3.1590002
-1.3154926 0.060167626 3.1665001
-1.277528 0.067780912 3.1740003
-1.2194422 0.074896067 3.1590002
-1.117976 0.07133849 3.1665001
-1.0856036 0.060025115 3.1590002
-0.95628434 0.060310137 3.1740003
-0.92792988 0.067620754 3.1665001
-0.87741029 0.082331538 3.1590002
-0.79562002 0.082331538 3.1590002
-0.75844264 0.074896067 3.1590002
-0.7284255 0.067780912 3.1740003
-0.71180683 0.060167626 3.1665001
-2.2396984 0.097433269 3.1665001
-0.60333604 0.023173196 3.2040002
-0.5882532 0.023173196 3.2040002
-1.6852695 0.043152411 3.1940002
-1.4479723 0.049568079 3.2040002
-1.4111689 0.038076885 3.1890001
-1.3623793 0.041829929 3.1890001
-1.3423927 0.053338777 3.2040002
-1.0884072 0.05308906 3.1890001
-1.0721664 0.045690179 3.1965003
-1.0369663 0.03825599 3.2040002
-0.99548858 0.045797385 3.2040002
-0.97581589 0.05308906 3.1890001
-0.70640177 0.050824981 3.2040002
-0.68307841 0.045582976 3.1890001
-0.64481366 0.030714594 3.2040002
-1.6689769 0.060690161 3.1940002
-1.6289055 0.0682614 3.1965003
-1.5913152 0.07560733 3.1890001
-1.5787202 0.075844422 3.1990001
-1.5422397 0.075962968 3.2040002
-1.5237603 0.07560733 3.1890001
-1.4937359 0.068101235 3.1890001
-1.4637116 0.060595151 3.1890001
-1.3129084 0.060737662 3.1965003
-1.2752898 0.0682614 3.1965003
-1.2150998 0.075785145 3.1965003
-1.1474037 0.075785145 3.1965003
-1.1236923 0.064650871 3.2040002
-1.1034194 0.060595151 3.1890001
-0.95329756 0.060595151 3.1890001
-0.90826106 0.07560733 3.1890001
-0.87653148 0.08330889 3.1965003
-0.81449509 0.083504356 3.2040002
-0.76365769 0.072014451 3.1965003
-0.74312705 0.068101235 3.1890001
-2.264653 0.094585672 3.1965003
-2.2443447 0.090619504 3.1890001
-0.61905092 0.023339545 3.2270002
-0.5859561 0.023281684 3.2190001
-0.55758995 0.023310615 3.223
-0.52033931 0.023397407 3.2349999
-0.50257248 0.023397407 3.2350001
-1.6899649 0.042857263 3.2258573
-1.4772108 0.053854849 3.2350001
-1.4240756 0.033486206 3.2296667
-1.4048742 0.031011768 3.2350001
-1.371154 0.041024338 3.2243335
-1.3411007 0.053588487 3.2190001
-1.1193358 0.053854849 3.2350001
-1.1004665 0.048613589 3.2243335
-1.0672061 0.038530611 3.2270002
-1.0241562 0.038626131 3.2350001
-0.9975059 0.04624049 3.2350001
-0.97604084 0.053721666 3.2270002
-0.73100328 0.053854849 3.2350001
-0.70816022 0.04624049 3.2350001
-0.67404729 0.036024328 3.2296669
-2.2739034 0.072786503 3.2309999
-1.6596292 0.061317202 3.2270002
-1.6241125 0.068855785 3.2243335
-1.5709273 0.076318592 3.2190001
-1.5305111 0.069083571 3.2350001
-1.5077093 0.06510555 3.2270002
-1.485058 0.061165191 3.2190001
-1.317309 0.061469212 3.2350001
-1.2674176 0.068855785 3.2243335
-1.2525871 0.069083571 3.2350001
-1.2086993 0.076571494 3.2296669
-1.1840577 0.076697938 3.2350001
-1.1497931 0.069083571 3.2350001
-1.1345644 0.061469212 3.2350001
-0.94332373 0.064953536 3.2190001
-0.90922862 0.076318592 3.2190001
-0.87567621 0.08431229 3.2350001
-0.82998997 0.08431229 3.2350001
-0.78800142 0.076318592 3.2190001
-0.76527131 0.068741888 3.2190001
-0.73496449 0.061165191 3.2190001
-2.2957544 0.091926657 3.2350001
-0.64035374 0.023563756 3.2580004
-0.54315114 0.023505894 3.2500002
-0.52785176 0.023505894 3.2500002
-1.6933693 0.042700022 3.2553337
-1.6755822 0.054237746 3.2580004
-1.4611112 0.042630065 3.2500002
-1.4381622 0.031155564 3.2500002
-1.3952748 0.035152607 3.2660003
-1.3616655 0.046454899 3.2500002
-1.3458366 0.054237746 3.2580004
-1.130062 0.050527263 3.2660003
-1.0927951 0.038900752 3.2580004
-1.0685633 0.031308945 3.2660003
-1.0059561 0.042630065 3.2500002
-0.70749903 0.041418802 3.2553337
-0.67319548 0.031155564 3.2500002
-2.3139105 0.085120231 3.2660003
-2.3005738 0.081068069 3.2580004
-1.6525767 0.061906245 3.2580004
-1.6219026 0.069574744 3.2580004
-1.5452576 0.069403902 3.2500002
-1.5221157 0.062058255 3.2660003
-1.3157675 0.061754234 3.2500002
-1.2412921 0.069517799 3.2553337
-1.2299972 0.069745578 3.2660003
-1.1551245 0.065579072 3.2500002
-0.96094078 0.062058255 3.2660003
-0.93328416 0.069403902 3.2500002
-0.91033518 0.077053569 3.2500002
-0.87208682 0.084703237 3.2500002
-0.84563088 0.085120231 3.2660003
-0.79176533 0.073228732 3.2500002
-0.7573418 0.061754234 3.2500002
-0.74969214 0.061754234 3.2500002
-1.4477587 0.023853058 3.2980001
-1.4361148 0.023853058 3.2980001
-0.66437382 0.023737337 3.2820001
-0.65664887 0.023737337 3.2820001
-1.6997834 0.039282832 3.29
-1.676347 0.054637283 3.2820001
-1.5063974 0.054637283 3.2820001
-1.4832225 0.043049805 3.2820001
-1.4600475 0.031462327 3.2820001
-1.3979448 0.034088448 3.2873333
-1.3673477 0.046912298 3.2820001
-1.154789 0.052227307 3.2926667
-1.1245433 0.041825991 3.2873333
-1.0867957 0.031615708 3.2980001
-1.060068 0.031513453 3.2873333
-1.0479825 0.031615708 3.2980001
-1.0110679 0.041825991 3.2873333
-0.98109829 0.054637283 3.2820001
-0.73506624 0.046975981 3.2873333
-0.69866335 0.031615708 3.2980001
-0.68754882 0.031462327 3.2820001
-2.3296263 0.071545593 3.29
-1.6573503 0.062666297 3.2980001
-1.6222723 0.070087254 3.2820001
-1.6053188 0.070360601 3.2948003
-1.5720599 0.070087254 3.2820001
-1.5372974 0.062362272 3.2820001
-1.3274376 0.062666297 3.2980001
-1.2963871 0.062666297 3.2980001
-1.2692178 0.062666297 3.2980001
-1.2472237 0.065253846 3.2980001
-1.2161731 0.070428938 3.2980001
-1.1857893 0.067727499 3.2926667
-1.1664981 0.062362272 3.2820001
-0.96259326 0.062666297 3.2980001
-0.91601741 0.078191586 3.2980001
-0.87294853 0.085537232 3.2820001
-0.86136103 0.085537232 3.2820001
-0.81887358 0.077812247 3.2820001
-0.79569858 0.070087254 3.2820001
-0.77252364 0.062362272 3.2820001
-1.4313815 0.02396878 3.3140001
-0.6825521 0.02396878 3.3140001
-0.63185006 0.016168473 3.3140001
-0.58504826 0.016168473 3.3140001
-1.6965919 0.043469545 3.3140001
-1.5288854 0.055170007 3.3140001
-1.4898838 0.035669245 3.3140001
-1.3572786 0.055170007 3.3140001
-1.1778716 0.055170007 3.3140001
-1.162271 0.0473697 3.3140001
-1.0998684 0.031769089 3.3140001
-0.98286384 0.055170007 3.3140001
-0.76835549 0.055170007 3.3140001
-0.7488547 0.0473697 3.3140001
-2.3557179 0.074670777 3.3140001
-1.5600866 0.062970318 3.3140001
-1.3260775 0.062970318 3.3140001
-1.3078767 0.062970318 3.3140001
-1.2870759 0.062970318 3.3140001
-1.2441742 0.062970318 3.3140001
-1.216873 0.070770621 3.3140001
-0.94386238 0.070770621 3.3140001
-0.83465803 0.078570932 3.3140001
-0.78785622 0.062970318 3.3140001
-1.7246853 0.022202386 3.3420005
-1.4735631 0.024084501 3.3300002
-1.4265352 0.024084501 3.3300002
-0.70095628 0.024200223 3.3460002
-0.64822054 0.016285565 3.3380003
-0.61530578 0.016246535 3.3300002
-0.58356398 0.016272554 3.3353336
-0.5670706 0.016324596 3.3460002
-1.696265 0.046129819 3.3364003
-1.5515239 0.055702727 3.3460002
-1.5205909 0.047598403 3.3300002
-1.497077 0.031922471 3.3300002
-1.4108593 0.031922471 3.3300002
-1.3951834 0.039760437 3.3300002
-1.3670987 0.051641151 3.3380003
-1.2916282 0.055702727 3.3460002
-1.2672865 0.052988734 3.3406668
-1.2463434 0.053733822 3.3460002
-1.2049963 0.055702727 3.3460002
-1.1873621 0.050376076 3.340667
-1.1540644 0.039824117 3.3353336
-1.1169355 0.031922471 3.3300002
-1.0503129 0.031922471 3.3300002
-1.0474838 0.032075852 3.3460002
-1.0032851 0.047598403 3.3300002
-0.76396126 0.047827106 3.3460002
-0.73652911 0.037262589 3.3406668
-0.71328032 0.031922471 3.3300002
-2.3670914 0.063274339 3.3300002
-1.6564726 0.063375674 3.3353336
-1.5909021 0.06357836 3.3460002
-1.5754566 0.063274339 3.3300002
-1.2345052 0.063274339 3.3300002
-1.2168685 0.063375674 3.3353336
-1.1992342 0.063274339 3.3300002
-0.94510067 0.071453981 3.3460002
-0.91706753 0.078950271 3.3300002
-0.81517386 0.071112297 3.3300002
-0.79949796 0.063274339 3.3300002
-1.7314372 0.019114712 3.3743334
-1.5115999 0.02444613 3.3800001
-1.4819927 0.018427916 3.3715
-1.4598882 0.016490476 3.3800001
-1.4399991 0.02444613 3.3800001
-1.1217729 0.02444613 3.3800001
-1.0934722 0.024347767 3.3664002
-0.71243328 0.024323177 3.3630002
-0.67059785 0.016449006 3.3715
-0.55412036 0.016407536 3.3630002
-0.53037351 0.016407536 3.3630002
-1.7180831 0.032320302 3.3715
-1.6992496 0.048070099 3.3630002
-1.5752616 0.056127243 3.3715
-1.5435754 0.048070099 3.3630002
-1.5276277 0.036278121 3.3715
-1.4169253 0.032238819 3.3630002
-1.401094 0.040154457 3.3630002
-1.3604425 0.056268744 3.3800001
-1.3246422 0.056268744 3.3800001
-1.3014517 0.052149415 3.3715
-1.2736871 0.04223486 3.3715
-1.2440455 0.048110697 3.3664002
-1.2162544 0.049264614 3.3678572
-1.186415 0.040255949 3.3715
-1.1535956 0.032401785 3.3800001
-1.1398778 0.032238819 3.3630002
-1.0501721 0.032401785 3.3800001
-1.0251011 0.040154457 3.3630002
-1.005312 0.048070099 3.3630002
-0.98948067 0.055985738 3.3630002
-0.79158962 0.055985738 3.3630002
-0.77967978 0.048313092 3.3800001
-0.73990154 0.032401785 3.3800001
-1.6543945 0.06390138 3.3630002
-1.6366761 0.063982129 3.3672502
-1.6108584 0.06390138 3.3630002
-0.97364938 0.06390138 3.3630002
-0.82535297 0.068040714 3.3715
-1.735154 0.020630289 3.4050002
-1.5348412 0.02469204 3.4140003
-1.5107694 0.016612448 3.4050002
-1.46252 0.016656358 3.4140003
-1.4388223 0.024561852 3.3960001
-1.1491284 0.02469204 3.4140003
-1.1350764 0.024561852 3.3960001
-1.0779653 0.024626946 3.4050002
-0.72741741 0.024561852 3.3960001
-0.69544411 0.016568538 3.3960001
-0.68745083 0.016568538 3.3960001
-1.7176338 0.042276096 3.4068
-1.6906117 0.056535106 3.3960001
-1.6069432 0.056684934 3.4050002
-1.5667154 0.048541795 3.3960001
-1.5549304 0.036745563 3.4140003
-1.4223416 0.036745563 3.4140003
-1.3905306 0.048670441 3.4050002
-1.3556694 0.056734879 3.4080002
-1.3259134 0.048799086 3.4140003
-1.3052381 0.043284561 3.4020002
-1.2720079 0.032684583 3.4095004
-1.2451074 0.038984329 3.3996003
-1.2190063 0.040548481 3.3960001
-1.1893069 0.032727722 3.4140003
-1.1670496 0.032555167 3.3960001
-1.0285932 0.040763404 3.4140003
-1.0125219 0.048799086 3.4140003
-0.80145448 0.052667096 3.4050002
-0.75939071 0.036551826 3.3960001
-0.9803791 0.064870447 3.4140003
-1.7550024 0.0075283288 3.4382858
-1.7363006 0.024814993 3.4310002
-1.5462852 0.020818615 3.4395003
-1.5095481 0.0087065296 3.4480002
-1.4608538 0.020880092 3.4480002
-1.2985395 0.024937946 3.4480002
-1.2766597 0.024907209 3.4437501
-1.1808619 0.024937946 3.4480002
-1.1629262 0.024814993 3.4310002
-1.1321676 0.016822238 3.4480002
-1.0794154 0.024937946 3.4480002
-0.75478715 0.024937946 3.4480002
-0.74299008 0.024814993 3.4310002
-0.71472514 0.016739298 3.4310002
-0.66793156 0.0086850664 3.4395003
-0.64441478 0.008695798 3.4437501
-0.61581975 0.0086922208 3.4423335
-1.7201492 0.04096638 3.4310005
-1.6934084 0.057306442 3.4423335
-1.6678042 0.057400778 3.4480002
-1.6353543 0.057117771 3.4310002
-1.5989373 0.049163576 3.4395003
-1.5785315 0.03711151 3.4480002
-1.4248898 0.037010022 3.4395003
-1.3959281 0.049285073 3.4480002
-1.3553495 0.049285073 3.4480002
-1.335837 0.04512573 3.4395003
-1.307492 0.032972172 3.4395003
-1.2436832 0.032890689 3.4310005
-1.2194561 0.032890689 3.4310005
-1.0579422 0.032890689 3.4310002
-1.0014123 0.057117771 3.4310002
-0.82782853 0.057400778 3.4480002
-0.78724998 0.041169364 3.4480002
-0.76721716 0.032890689 3.4310002
-1.7519732 0.012831018 3.4660001
-1.5582188 0.016910056 3.4660001
-1.51199 0.008751981 3.4660003
-1.3053185 0.020989094 3.4660001
-1.2767652 0.020989094 3.4660001
-1.248212 0.025068132 3.4660003
-1.2115006 0.025068132 3.4660001
-1.1992636 0.025068132 3.4660001
-1.150315 0.016910056 3.4660001
-1.1217618 0.016910056 3.4660001
-0.73833227 0.016910056 3.4660001
-0.68530476 0.008751981 3.4660001
-0.603724 0.008751981 3.4660001
-0.58332878 0.008751981 3.4660001
-0.55477554 0.008751981 3.4660003
-1.7295384 0.041384283 3.4660003
-1.6234834 0.04954236 3.4660001
-1.4195316 0.041384283 3.4660001
-1.3379508 0.037305247 3.4660001
-1.0605763 0.033226211 3.4660001
-1.0361021 0.041384283 3.4660001
-0.81583393 0.04954236 3.4660001
-1.7513553 0.010315474 3.493273
-1.7288744 0.0022479941 3.5010002
-1.701681 0.00059990265 3.5010002
-1.5786119 0.021098098 3.4840002
-1.5458101 0.0087974332 3.4840002
-1.5007077 0.0087974332 3.4840002
-1.4915494 0.012960588 3.5010002
-1.466828 0.025321273 3.5010002
-1.3349807 0.025321273 3.5010002
-1.3026315 0.011559531 3.4953337
-1.2772695 0.014278702 3.4896667
-1.2439142 0.021118833 3.4882503
-1.178412 0.017080816 3.5010002
-1.1644895 0.016997876 3.4840002
-1.1138875 0.017039346 3.4925003
-1.087767 0.025321273 3.5010002
-0.76450849 0.021139568 3.4925003
-0.70642501 0.0088117421 3.4896669
-0.54125577 0.0087974332 3.4840002
-0.53305537 0.0087974332 3.4840002
-1.7263012 0.044447515 3.4925003
-1.6934406 0.050042644 3.5010002
-1.6687192 0.050042644 3.5010002
-1.6442155 0.049799651 3.4840002
-1.6110361 0.03768196 3.5010002
-1.4433045 0.033398766 3.4840002
-1.3963693 0.04988065 3.4896669
-1.3666615 0.041690696 3.4925003
-1.0578837 0.033398766 3.4840002
-1.025082 0.049799651 3.4840002
-1.0136029 0.058283098 3.5010002
-0.79546952 0.037498988 3.4840002
-0.50800723 -0.032703936 3.5380001
-1.6821911 -0.007721303 3.5380001
-0.51633477 -0.016048849 3.5380001
-1.7464236 0.019288719 3.5290003
-1.7274865 0.0088883359 3.5200002
-1.6972197 0.004753836 3.5260003
-1.6238983 0.025588877 3.5380001
-1.5989803 0.015124945 3.5290003
-1.5742106 0.0088883359 3.5200002
-1.5447865 0.00060624263 3.5380001
-1.5073127 0.0089337872 3.5380001
-1.4823301 0.021425106 3.5380001
-1.3505108 0.025458692 3.5200002
-1.3331873 0.01305365 3.5290003
-1.3061044 0.0022626612 3.5344002
-1.2698058 0.0089034867 3.5260003
-1.2449079 0.017202787 3.5260003
-1.2184448 0.017239379 3.5335002
-1.1930925 0.017173514 3.5200002
-0.78711873 0.025458692 3.5200002
-0.7705484 0.017173514 3.5200002
-0.73515046 0.008911062 3.5290003
-0.6745581 0.00060624263 3.5380001
-0.64848799 0.00060521456 3.5320003
-0.61804587 0.00060392939 3.5245001
-0.58711886 0.00060624263 3.5380001
-0.55380869 0.00060624263 3.5380001
-0.53298986 0.00060624263 3.5380001
-1.7485055 0.033830151 3.5290003
-1.7257788 0.042190239 3.5335002
-1.7071737 0.042243969 3.5380001
-1.6613722 0.042243969 3.5380001
-1.634975 0.039324839 3.5260003
-1.4499329 0.033743873 3.5200002
-1.4328637 0.042136509 3.5290003
-1.3990545 0.042243969 3.5380001
-1.3670812 0.033743873 3.5200002
-1.0659527 0.033916425 3.5380001
-1.0383009 0.046300285 3.5290003
-0.8077988 0.033916425 3.5380001
-0.52105415 -0.03705528 3.5560002
-1.6823796 -0.0077605862 3.5560002
-1.6740097 -0.0161305 3.5560005
-0.57755107 -0.0077605862 3.5560002
-0.55244136 -0.0077605862 3.5560005
-0.52733159 -0.018222978 3.5560002
-1.7493387 0.022929095 3.5560005
-1.7242292 0.017349152 3.5560005
-1.6991194 0.0089792395 3.5560005
-1.6237903 0.017349152 3.5560002
-1.6154202 0.0089792395 3.5560002
-1.5777557 0.00060932699 3.5560002
-1.5317212 0.00060932699 3.5560002
-1.3643229 0.021534108 3.5560002
-1.3308432 0.00060932699 3.5560002
-1.2764387 0.0047942833 3.5560002
-1.1759999 0.0089792395 3.5560002
-1.1550751 0.0089792395 3.5560005
-1.1215955 0.017349152 3.5560002
-1.0964856 0.025719065 3.5560002
-0.79516882 0.021534108 3.5560002
-0.75331926 0.0089792395 3.5560002
-0.69891477 0.00060932699 3.5560002
-0.67799002 0.00060932699 3.5560002
-1.7451539 0.03408898 3.5560002
-1.7284141 0.03408898 3.5560002
-1.6949345 0.042458892 3.5560002
-1.6614548 0.03408898 3.5560002
-1.6488999 0.03408898 3.5560002
-1.4563919 0.03408898 3.5560002
-1.4229122 0.042458892 3.5560002
-1.3894327 0.03408898 3.5560002
-0.5554812 -0.036535073 3.5864003
-0.52781391 -0.044309646 3.578167
-0.50624698 -0.054237433 3.5845003
-1.683439 -0.016302872 3.5940001
-1.6745394 -0.016216686 3.5750003
-1.577697 -0.0078435168 3.5940001
-1.3288428 -0.0078227846 3.5845003
-1.3052759 -0.0078331511 3.5892501
-0.64547974 -0.0078227846 3.5845001
-0.61592793 -0.012052462 3.5845003
-0.58359605 -0.013868143 3.5858574
-0.55736089 -0.020496368 3.5876667
-0.53856379 -0.020424003 3.5750003
-1.7460637 0.025856486 3.5750003
-1.7230895 0.025890838 3.5797501
-1.6963116 0.012906974 3.5870912
-1.6665202 0.023174116 3.5940001
-1.6437879 0.01747275 3.5813339
-1.607286 0.0006142105 3.5845003
-1.5314907 0.00061258266 3.5750003
-1.5227113 0.0090751927 3.5940001
-1.4894174 0.021649167 3.5750003
-1.3884418 0.025856486 3.5750003
-1.3624033 0.009059201 3.5876667
-1.2723029 0.0048318934 3.5797501
-1.2435526 0.0090751927 3.5940001
-1.2160429 0.009059201 3.5876667
-1.1949053 0.0090272166 3.5750003
-1.1504997 0.0090751927 3.5940001
-1.1251216 0.017534548 3.5940001
-0.80366611 0.017534548 3.5940001
-0.77202344 0.0090512047 3.5845003
-0.72983849 0.0006142105 3.5845003
-0.71907252 0.00061583833 3.5940001
-1.72082 0.034271121 3.5750003
-1.695576 0.034271121 3.5750003
-1.4634957 0.034453258 3.5940001
-1.4305151 0.042685755 3.5750003
-1.4052712 0.034271121 3.5750003
-1.065906 0.038682938 3.5940001
-0.58113939 -0.036231901 3.6130002
-0.55704451 -0.048279345 3.6130002
-0.52302819 -0.058909442 3.6130002
-1.6838347 -0.016389059 3.6130002
-1.6030458 -0.007884982 3.6130002
-1.5690296 -0.007884982 3.6130002
-1.3521756 -0.007884982 3.6130002
-1.3309155 -0.016389059 3.6130002
-1.3054032 -0.01213702 3.6130002
-0.67184955 -0.007884982 3.6130002
-0.64066797 -0.01922375 3.6130002
-0.61515564 -0.022058442 3.6130002
-0.59106076 -0.024893135 3.6130002
-1.6934018 0.014438218 3.6130004
-1.6689525 0.011249188 3.6130002
-1.6370622 0.000619094 3.6130002
-1.4882408 0.026131323 3.6130002
-1.4117042 0.026131323 3.6130002
-1.279891 0.000619094 3.6130002
-1.1480777 0.0091231698 3.6130002
-0.82492292 0.026131323 3.6130002
-0.79090661 0.0091231698 3.6130002
-0.7483862 0.000619094 3.6130002
-1.4287124 0.034635399 3.6130002
-0.52867401 -0.0681412 3.6520002
-0.66191 -0.033757713 3.6520002
-0.64193052 -0.037894379 3.6361666
-0.61463457 -0.03856289 3.6411431
-0.58786207 -0.045659717 3.6406002
-0.55303043 -0.059390433 3.6425002
-0.53875017 -0.059235539 3.6330001
-1.6868606 -0.014385087 3.6425002
-1.6633291 -0.0079700956 3.6520002
-1.6290219 -0.0079286303 3.6330001
-1.5646825 -0.0079493634 3.6425002
-1.3839632 -0.0079700956 3.6520002
-1.3596606 -0.013629396 3.6330001
-1.3323879 -0.02516184 3.6520002
-1.3076614 -0.016523201 3.6406002
-0.74786866 -0.0079700956 3.6520002
-0.70368177 -0.0079562739 3.6456668
-0.67518616 -0.016534055 3.6425002
-0.65561587 -0.022180548 3.6330001
-0.61571056 -0.025030931 3.6330001
-1.6846044 0.00062252104 3.6330001
-1.667502 0.00062252104 3.6330001
-1.5392349 0.0048980964 3.6330001
-1.5135814 0.017724823 3.6330001
-1.4957095 0.026413394 3.6520002
-1.4355384 0.026413394 3.6520002
-1.3938653 0.013449248 3.6330001
-1.376763 0.00062252104 3.6330001
-1.2699958 0.00062469154 3.6456668
-1.2077479 0.00062577677 3.6520002
-1.1518748 0.0092216488 3.6520002
-1.1231354 0.022069108 3.6425002
-0.82523155 0.017817521 3.6520002
-0.79304403 0.0048997244 3.6425002
-0.7673682 0.00062414887 3.6425002
-1.4708257 0.034827128 3.6330001
-1.4588069 0.034948554 3.6456668
-0.54453361 -0.068514369 3.6720002
-0.66985637 -0.038264059 3.6720002
-0.63096315 -0.051228479 3.6720002
-0.60935569 -0.051228479 3.6720002
-0.57046247 -0.059871428 3.6720002
-1.6911646 -0.019537672 3.6720002
-1.6767597 -0.016656691 3.6720002
-1.6335449 -0.016656691 3.6720002
-1.6032946 -0.016656691 3.6720002
-1.3828994 -0.016656691 3.6720002
-1.3656136 -0.025299639 3.6720002
