ply
format ascii 1.0
comment PCL generated
element vertex 1519
property float x
property float y
property float z
element camera 0
property float view_px
property float view_py
property float view_pz
property float x_axisx
property float x_axisy
property float x_axisz
property float y_axisx
property float y_axisy
property float y_axisz
property float z_axisx
property float z_axisy
property float z_axisz
property float focal
property float scalex
property float scaley
property float centerx
property float centery
property int viewportx
property int viewporty
property float k1
property float k2
end_header
3.350467 1.7927001 0.48514327
3.3750505 1.7905337 0.4961533
3.4115276 1.7964866 0.49881035
3.4308083 1.7993519 0.49517155
3.552629 1.7983401 0.49271032
3.3472388 1.812911 0.48795423
3.368602 1.817398 0.50305009
3.4462047 1.8008482 0.49807471
3.4772573 1.8113565 0.49463758
3.4977553 1.81007 0.49133223
3.5216339 1.8103012 0.49776116
3.5444794 1.8080604 0.49542648
3.5806642 1.8038104 0.49186212
3.6179388 1.8153065 0.49624482
3.6436212 1.8253555 0.49228615
3.6630502 1.8273274 0.50364935
3.3674924 1.84515 0.49523166
3.6724424 1.8402648 0.49013606
3.7083032 1.8526063 0.49691013
3.3787985 1.8683031 0.49718067
3.39346 1.8852448 0.50459015
3.7116342 1.8678638 0.48226896
3.7440476 1.8755158 0.49208727
3.3891203 1.9085419 0.48508701
3.3952332 1.9019985 0.49954072
3.7898064 1.9008592 0.49293762
3.8438938 1.9184655 0.5069536
3.3573546 1.9399412 0.49471241
3.3809917 1.9301252 0.49529064
3.4050336 1.9271287 0.50380045
3.8386788 1.9450996 0.48259276
3.8412862 1.9317827 0.49477321
3.8823047 1.9416215 0.50617051
3.3711634 1.9636831 0.49980059
3.8787899 1.9595722 0.48975196
3.9198036 1.9693205 0.50105143
3.3844659 1.9832993 0.49796408
3.397192 2.0013285 0.49035645
3.9162507 1.9874655 0.48445511
3.9817457 2.0010903 0.50838661
3.4147971 2.0115409 0.5089277
3.4265475 2.029964 0.49364948
3.9790361 2.0149288 0.4957293
3.4402111 2.0488582 0.48603162
3.4573464 2.0592825 0.50092137
4.0193844 2.0446429 0.49048141
4.0428977 2.0479333 0.50306904
3.4700172 2.0785804 0.48550025
3.4858832 2.0932119 0.49291524
4.0615954 2.0703282 0.48943165
4.0912914 2.0813024 0.49447522
3.5009956 2.1126785 0.49748081
4.1271467 2.100018 0.49182072
4.1486316 2.1135631 0.48662838
4.1753378 2.1172776 0.50903732
3.523782 2.1450453 0.49332994
3.5286813 2.1628263 0.48532841
3.5457735 2.1770458 0.49421692
3.5603545 2.1936426 0.49250782
3.5768814 2.2116847 0.49116096
3.5926514 2.2303276 0.49228936
3.6094666 2.2460945 0.49997342
3.6156068 2.261095 0.48607802
3.6435225 2.2796011 0.50368589
3.6516972 2.299094 0.49020097
3.6753616 2.3219895 0.495388
3.6939795 2.3344066 0.50724232
3.7027528 2.3546054 0.49362138
3.7253437 2.382442 0.49067995
3.743551 2.4002001 0.49459216
3.7610598 2.4202778 0.49439031
3.7786679 2.4455571 0.4903014
3.7802699 2.4450836 0.50301898
3.7758958 2.4879799 0.49654233
3.795856 2.4763384 0.49475926
3.7352481 2.5137777 0.50413239
3.7609367 2.5036676 0.49515447
3.7950637 2.4933012 0.49982548
3.7347951 2.5262592 0.50892007
3.7513318 2.5373924 0.49473408
3.7625558 2.5667927 0.49633631
3.7688251 2.585758 0.50538534
3.785434 2.5993063 0.49342513
3.8037581 2.6304772 0.49916536
3.8217745 2.6528904 0.49645057
3.8386078 2.6830952 0.48939911
3.8410587 2.676703 0.5050081
3.8571024 2.7101123 0.49370587
3.878387 2.7260265 0.50495422
3.8763855 2.7420902 0.49956769
3.896142 2.7689152 0.50578851
4.1863003 -2.4010868 0.51726305
4.2257304 -2.4073825 0.51300585
4.1046052 -2.3841686 0.52702892
4.1279449 -2.3893101 0.52754152
4.1567345 -2.3910911 0.52614629
4.1865544 -2.3886807 0.52775496
4.2195034 -2.387599 0.52639258
4.2454963 -2.3834965 0.52553546
4.2730451 -2.3771071 0.52095395
4.2450471 -2.3681431 0.53229892
4.2835507 -2.3563559 0.52454764
4.303206 -2.3448389 0.51955539
4.2826877 -2.3355873 0.53163117
4.3026896 -2.3289275 0.52615255
4.332047 -2.3208547 0.52865976
4.3190937 -2.2872925 0.51514173
4.3316927 -2.3022046 0.52116656
4.3642454 -2.2933364 0.532938
4.3177199 -2.269599 0.51597357
4.338695 -2.2590621 0.52104843
4.3621612 -2.2665014 0.53419948
4.3366222 -2.2323744 0.52230299
4.3597302 -2.2351935 0.53567123
4.3111153 -2.1984973 0.51049316
4.3345504 -2.2056868 0.52355754
4.3579941 -2.2128305 0.53672248
4.3097677 -2.1764901 0.51446861
4.3336825 -2.1851494 0.53043765
4.2865314 -2.1393478 0.52336615
4.3101544 -2.1535549 0.53319257
4.2418604 -2.1006598 0.52341133
4.2630157 -2.1195054 0.51823235
4.219615 -2.0815835 0.5198763
4.2428212 -2.0924423 0.53681439
4.1876726 -2.0577557 0.52292168
4.2000756 -2.0633988 0.53776062
4.135427 -2.0202143 0.52637219
4.1573324 -2.0347342 0.53023839
4.0937834 -1.9923363 0.51904035
4.1153326 -2.002353 0.53129274
4.0345359 -1.9521736 0.51664877
4.0607705 -1.9644524 0.52435714
4.0136013 -1.9303763 0.51740026
4.0544205 -1.9411865 0.53784329
4.0125227 -1.9100116 0.52244991
4.0330815 -1.9074032 0.5352115
4.0685854 -1.8957253 0.53588724
4.1060991 -1.8967316 0.52785587
4.159306 -1.9041829 0.53071839
4.2190623 -1.903039 0.52689284
4.246582 -1.9009622 0.53286809
3.9980571 -1.8797258 0.51852816
4.0352287 -1.8808149 0.52136797
4.0655241 -1.882604 0.51987767
4.1043887 -1.8879943 0.51986456
4.1231098 -1.8883128 0.51567984
4.1626453 -1.8894614 0.51577556
4.1817226 -1.8813635 0.51198018
4.2178349 -1.8718024 0.52440125
4.1863918 -1.838811 0.52401876
4.2120018 -1.8566351 0.52836293
4.1373425 -1.804167 0.52409053
4.1574636 -1.8182281 0.52196997
4.0962868 -1.7703607 0.53379643
4.1155472 -1.7909162 0.52025831
4.0680404 -1.7587587 0.5202226
4.0145273 -1.7205263 0.51108027
4.0345325 -1.7286787 0.52026272
4.0675421 -1.7259179 0.53846687
4.0139604 -1.7002041 0.52026463
4.0319815 -1.6914605 0.52476937
4.070684 -1.6948394 0.5330255
4.0903997 -1.6945379 0.53736067
4.0106831 -1.6710187 0.51340747
4.0374861 -1.6616091 0.51578116
4.0676808 -1.6693883 0.52586412
4.0860219 -1.6603185 0.52496594
4.127254 -1.6652803 0.53628153
4.0626507 -1.6310562 0.51095092
4.0831795 -1.6347842 0.51916456
4.1241174 -1.6338439 0.53209722
4.1431127 -1.6243974 0.53677356
4.0881572 -1.6039358 0.5180887
4.1414509 -1.6029956 0.53777963
4.0980444 -1.5788705 0.52177978
4.1291046 -1.5777545 0.53260338
4.0964007 -1.5576975 0.52277511
4.1229758 -1.5479075 0.52903956
4.1574044 -1.5545949 0.53592563
3.3881218 1.7973787 0.52491003
3.410985 1.7951003 0.52430999
3.4375997 1.7985542 0.52521992
3.4509816 1.7994365 0.53599751
3.5627699 1.7984442 0.51537144
3.3860219 1.8098247 0.5162648
3.4030783 1.8121654 0.53325599
3.4485934 1.8001424 0.51703608
3.4654741 1.802026 0.52405751
3.4895666 1.8075861 0.5264402
3.5217559 1.8169414 0.52207357
3.5556083 1.8122724 0.52642137
3.5913641 1.8090559 0.52766007
3.6192405 1.8131361 0.51868981
3.6428738 1.8232683 0.53141481
3.6645784 1.8268757 0.51578248
3.3834195 1.8406436 0.51600957
3.4004924 1.8407682 0.53162831
3.6839108 1.8367733 0.53173834
3.7118294 1.8462039 0.52126664
3.2808552 1.881206 0.53983915
3.4014099 1.8760659 0.52603567
3.7658062 1.8696524 0.52394831
3.7887371 1.8847301 0.51237082
3.3136823 1.9084815 0.53754914
3.3357472 1.9121761 0.53862113
3.405508 1.9042872 0.52741975
3.8295321 1.8979982 0.53250706
3.8467054 1.9092704 0.5235967
3.3192627 1.9242734 0.53609395
3.3474588 1.9365131 0.53526938
3.3693712 1.9384235 0.52565998
3.40114 1.9318662 0.52615076
3.8653893 1.9209567 0.51903486
3.9119422 1.9416676 0.52800339
3.3706992 1.9638723 0.52700579
3.9432015 1.9676529 0.51755965
3.9657309 1.9704195 0.53001201
3.387882 1.9847358 0.52674443
3.4019232 1.99993 0.52791756
3.983552 1.9918646 0.51682484
4.0060954 1.994531 0.52932173
3.4157479 2.0112598 0.51647723
3.4303694 2.0288343 0.52398765
4.0465722 2.0291662 0.52023453
4.0502467 2.0103986 0.53740001
4.092556 2.0355511 0.53678823
3.4759498 2.0692735 0.52746814
4.0879107 2.0592773 0.51508677
4.1133962 2.0580699 0.53244543
3.5018594 2.0963387 0.52633232
4.1556931 2.0887332 0.52724695
3.5197401 2.1200404 0.52338737
4.1528573 2.1032169 0.51399922
3.5346601 2.1418035 0.51971924
3.5523822 2.1544492 0.5326634
3.5588665 2.1753688 0.52065384
3.5899572 2.2090173 0.52583647
3.612628 2.2372632 0.51971006
3.6322832 2.2492087 0.53968728
3.6291051 2.2580862 0.51984757
3.6464 2.2747607 0.52382046
3.6632271 2.2906237 0.53167027
3.6785893 2.3129733 0.51553667
3.6971824 2.3280578 0.52900034
3.7141764 2.3463573 0.53162891
3.7299979 2.3687844 0.51928967
3.7468464 2.3909948 0.51516455
3.7501419 2.3817894 0.53573704
3.7669902 2.4040439 0.53163624
3.7847965 2.4271045 0.52765352
3.7950962 2.4492893 0.5223214
3.7785654 2.4871907 0.51773828
3.7934628 2.4747775 0.52633578
3.8196588 2.4895351 0.53288645
3.7193778 2.5165758 0.53320187
3.7354069 2.5126805 0.52701521
3.7681615 2.506038 0.52329797
3.7938569 2.4929914 0.52887881
3.8179111 2.498462 0.52472162
3.6625223 2.5394249 0.53852546
3.7124553 2.5367091 0.53519541
3.7357256 2.5342152 0.52189714
3.7526243 2.5489631 0.51310933
3.6606004 2.5641785 0.53968918
3.7058671 2.5664852 0.53529119
3.7339644 2.5635457 0.52747691
3.7516026 2.5674701 0.51735783
3.6767406 2.5825953 0.53545165
3.7067139 2.5954714 0.53581083
3.732203 2.5928762 0.5330568
3.7552586 2.5948002 0.52453202
3.711653 2.6116548 0.53488559
3.7438869 2.6251018 0.53277862
3.7688501 2.6190333 0.52818269
3.7932231 2.623524 0.51841033
3.7658744 2.657356 0.52998424
3.7955406 2.6514637 0.52881694
3.8236864 2.6692374 0.52311254
3.8234279 2.6862257 0.53254223
3.8423836 2.6848133 0.52129883
3.8220837 2.7035344 0.53335595
3.8542006 2.7095881 0.52459198
3.8805938 2.7253745 0.52247101
3.8598185 2.7349522 0.53268051
3.8913925 2.7493067 0.52293605
3.898361 2.7682598 0.52340335
4.0930924 -2.37641 0.55708539
4.1217775 -2.3779061 0.55457401
4.1600232 -2.3803682 0.551512
4.1889191 -2.3810587 0.55217731
4.2181487 -2.3791628 0.5527404
4.2484322 -2.3775992 0.55343235
4.268261 -2.3720136 0.55404472
4.1012969 -2.3587708 0.56178409
4.1232491 -2.355356 0.56449169
4.1526618 -2.3577256 0.56255597
4.1891985 -2.3645 0.56569564
4.2477603 -2.3689449 0.55383915
4.2770615 -2.3554046 0.55466717
4.0995612 -2.3298759 0.56727791
4.1285443 -2.334219 0.56983
4.2824454 -2.3320811 0.55554855
4.3063674 -2.3300147 0.5553472
4.3344836 -2.322412 0.55372286
4.369391 -2.3196204 0.5569787
4.3915539 -2.3154292 0.5591799
4.3660612 -2.3026133 0.54142302
4.3890204 -2.2939608 0.55313921
4.4134712 -2.296247 0.56957126
4.3910861 -2.2661674 0.55261624
4.4105802 -2.2732906 0.56162632
4.3839083 -2.2321742 0.55348021
4.357985 -2.1938915 0.54950762
4.3830094 -2.2030265 0.56595927
4.3342314 -2.1664796 0.5475806
4.3580203 -2.1778789 0.56066817
4.3110876 -2.1423056 0.54842603
4.3348684 -2.1536303 0.56149256
4.2756305 -2.1129668 0.55623108
4.2232847 -2.0742123 0.55474746
4.2439127 -2.0927649 0.54547721
4.1789041 -2.0448229 0.54262275
4.202106 -2.0555885 0.55958861
4.1595449 -2.0229073 0.55627388
4.1809235 -2.037055 0.56433189
4.1276751 -1.9975135 0.55686408
4.0748091 -1.9627194 0.54105115
4.0964708 -1.9661105 0.55871838
4.0735888 -1.9338536 0.55072123
4.0942416 -1.9365212 0.5606665
4.1134701 -1.9318355 0.56401479
4.1528049 -1.9293872 0.56491673
4.1805668 -1.9256436 0.55479175
4.2102327 -1.9266051 0.54873955
4.2444878 -1.9457436 0.56770301
4.2733951 -1.9377674 0.55331427
4.3053355 -1.9347531 0.55613488
4.338706 -1.9361947 0.5675689
4.0702782 -1.9043698 0.54379404
4.0994854 -1.9055283 0.54622018
4.1491427 -1.9158239 0.54432118
4.2084751 -1.9176301 0.54053032
4.2699008 -1.9066501 0.5460034
4.3032656 -1.9080899 0.55738831
4.2686133 -1.8761851 0.55620921
4.2917218 -1.8859164 0.56489009
4.2139149 -1.8402658 0.55504912
4.1602921 -1.8051237 0.55389071
4.1813617 -1.8223866 0.54909027
4.1335249 -1.7816033 0.54948199
4.1603684 -1.7925999 0.56301713
4.096035 -1.7538233 0.54297578
4.1165075 -1.7498255 0.55597579
4.0730362 -1.7119104 0.54058051
4.0927644 -1.7116997 0.54495597
4.1214437 -1.7286072 0.55570513
4.1542244 -1.722476 0.5606218
4.19519 -1.7192191 0.5671196
4.1204958 -1.6941178 0.54397595
4.1505775 -1.6935174 0.55059963
4.1849475 -1.6901628 0.55833834
4.2121577 -1.6838019 0.56470209
4.1611152 -1.664391 0.54643232
4.2111444 -1.6707499 0.5653156
4.1659131 -1.6370047 0.54922032
4.1871781 -1.6365206 0.55806053
4.2087793 -1.6402954 0.56674725
4.1846194 -1.6103969 0.55497301
4.2114325 -1.5990187 0.56151026
4.2467542 -1.5946667 0.56944305
4.1604891 -1.5807366 0.54328108
4.1811819 -1.5797855 0.54778087
4.2154269 -1.5750657 0.55542785
3.4079213 1.7914451 0.55860507
3.4291828 1.7914263 0.55335921
3.4590082 1.788534 0.56100821
3.4868224 1.7949994 0.56138796
3.403409 1.8116835 0.55740535
3.4678745 1.8013166 0.54311228
3.4943442 1.8043287 0.54995221
3.5242517 1.8087425 0.55562812
3.5578842 1.8110857 0.55413109
3.5870404 1.8074195 0.55279428
3.6010056 1.8082886 0.56172347
3.6347783 1.8210444 0.55726981
3.2524035 1.847845 0.55789971
3.2821183 1.850987 0.55840218
3.3145771 1.8515511 0.56377506
3.3512263 1.8528869 0.56675363
3.3840635 1.8502589 0.56304747
3.4022288 1.8411289 0.55423564
3.6685326 1.8336452 0.55256331
3.7022691 1.8460913 0.5476042
3.7302942 1.8580408 0.55342233
3.2606864 1.8720616 0.55556434
3.2889132 1.8766322 0.5447194
3.3163784 1.8770227 0.54965466
3.3493729 1.8734568 0.5574047
3.3779693 1.8761445 0.55747205
3.4012191 1.873103 0.54921615
3.7667449 1.8748095 0.5611465
3.7929633 1.8834813 0.54592025
3.2685437 1.8926058 0.56257254
3.2838058 1.9013796 0.54875356
3.3169167 1.9037651 0.54147297
3.3477018 1.9041848 0.54409683
3.374171 1.9064221 0.54711455
3.4035783 1.9050444 0.54749423
3.8128197 1.8940041 0.55833864
3.8499262 1.9083186 0.54916483
3.8707867 1.9193616 0.5618819
3.3142722 1.9297652 0.55680192
3.3351965 1.948354 0.55870259
3.3793111 1.9265823 0.54092407
3.3952534 1.9214058 0.54374146
3.9154491 1.9377974 0.55391759
3.347414 1.9546142 0.547198
3.361424 1.9685433 0.54725611
3.9743795 1.9637128 0.55265331
3.3770111 1.9856924 0.56234086
3.3975635 1.9976789 0.55262005
4.0319934 1.9911054 0.55675352
4.0532188 2.0006797 0.55499101
3.4194384 2.0175784 0.5508067
3.4338951 2.0315142 0.55450505
4.095562 2.0257213 0.55457973
4.1186466 2.0340333 0.55885696
3.4640999 2.0572865 0.5545361
4.1619487 2.059593 0.55837703
4.1860228 2.0683594 0.56278878
3.4797122 2.0757151 0.56246614
3.5039685 2.0944216 0.55316734
4.1585288 2.0742493 0.54049468
3.5239906 2.1168683 0.55583102
3.5400271 2.1286638 0.55448055
3.5546138 2.1486287 0.54687637
3.5718117 2.1591449 0.56233853
3.5691969 2.1676955 0.54686213
3.5870452 2.1839201 0.55503595
3.6110258 2.2116327 0.55920887
3.6168032 2.228132 0.5474934
3.6346364 2.244544 0.55567354
3.6514072 2.2639716 0.55725032
3.6759353 2.2922726 0.55805135
3.7067385 2.3284919 0.55770326
3.7162671 2.3457396 0.5482263
3.7364285 2.3586962 0.56478244
3.7527831 2.3810086 0.55670542
3.7696455 2.4032593 0.55271542
3.7869322 2.4264731 0.54461014
3.8054471 2.4500842 0.55499613
3.8004694 2.475215 0.55559725
3.6482766 2.5155482 0.56270528
3.6756032 2.5167553 0.55554396
3.7305675 2.5156357 0.55415487
3.7693772 2.5128903 0.54268932
3.7881899 2.5018234 0.55715412
3.8206098 2.4976645 0.54614508
3.6247413 2.5302796 0.55065691
3.6425984 2.530458 0.55459136
3.6768875 2.5285122 0.5492959
3.7079287 2.5285671 0.55238587
3.7265322 2.5262094 0.55888927
3.7675946 2.5213149 0.55035388
3.7805991 2.5281937 0.56213176
3.6443799 2.5527825 0.5562709
3.6790686 2.5657012 0.5429287
4.0948653 -2.3704517 0.57556212
4.1127958 -2.3730204 0.57164252
4.2506027 -2.3782408 0.57066441
4.0659695 -2.3541048 0.58485812
4.0935769 -2.3538647 0.57634181
4.1115012 -2.3563492 0.5724262
4.1681795 -2.3484786 0.57006598
4.1894779 -2.3479412 0.57921386
4.2159429 -2.3559389 0.57798713
4.2472625 -2.3594306 0.58367491
4.2771344 -2.35656 0.58190656
4.2939816 -2.3537095 0.58965015
4.0191879 -2.3105528 0.59273088
4.0351191 -2.327481 0.59241503
4.0604396 -2.3255963 0.57816386
4.1085887 -2.3188386 0.5741896
4.1221313 -2.3277617 0.57413155
4.1620984 -2.328357 0.58634609
4.1900883 -2.3356404 0.5925318
4.2838612 -2.3297493 0.57806236
4.30969 -2.3288476 0.58318567
4.3307166 -2.3253021 0.58393788
4.3636923 -2.3233893 0.58483487
4.3950992 -2.3208725 0.58434594
4.4176536 -2.3187003 0.5883683
4.0092878 -2.2940135 0.58685935
4.0335336 -2.292196 0.57384205
4.0656834 -2.2966223 0.57537299
4.1026115 -2.3004596 0.58739007
4.1286941 -2.3096993 0.5876978
4.4277358 -2.295964 0.58712685
3.9722583 -2.2651076 0.58956718
4.0060463 -2.261373 0.58264202
4.0325823 -2.2799459 0.57441789
4.0576673 -2.2725775 0.59159869
4.4099584 -2.2510056 0.57169795
4.4247775 -2.2639754 0.58293766
3.9528725 -2.2390718 0.58863735
3.966259 -2.2407157 0.59060436
3.996171 -2.2431393 0.59927797
4.4086609 -2.2307308 0.57490695
4.4339905 -2.2422159 0.59224021
4.4025578 -2.2078848 0.58599716
4.3604774 -2.1742353 0.58314192
4.3842449 -2.185811 0.58770418
4.3148384 -2.1347706 0.5840717
4.337657 -2.1544545 0.5836336
4.2925735 -2.1153464 0.58883518
4.248147 -2.0855148 0.58486849
4.2107444 -2.0591187 0.58635962
4.1629519 -2.0197537 0.58614826
4.1836071 -2.0378485 0.5856387
4.1195083 -1.9830084 0.57841325
4.1412477 -1.9962823 0.59000093
4.413681 -1.9902289 0.59803557
4.0978117 -1.9648694 0.57047731
4.1281285 -1.9666818 0.58148938
4.1490479 -1.9680636 0.59036356
4.1848121 -1.9640464 0.59070224
4.2201042 -1.9718019 0.5984019
4.2491255 -1.9641633 0.59294093
4.2798572 -1.9654636 0.58710712
4.3064103 -1.9604859 0.57621092
4.3347983 -1.977072 0.59440923
4.3661366 -1.9738884 0.58420777
4.387476 -1.9614609 0.58530915
4.4108543 -1.9538293 0.5997467
4.13449 -1.9413259 0.57231295
4.1553984 -1.9426348 0.57703364
4.1950364 -1.9441687 0.57770288
4.2148323 -1.9448766 0.5737741
4.3628583 -1.9245732 0.59101212
4.3860707 -1.9433644 0.58615983
4.3387504 -1.9085315 0.58671135
4.2701368 -1.8680396 0.57413954
4.294363 -1.8780531 0.59172809
4.2274628 -1.8328534 0.58806789
4.2479916 -1.8500941 0.57888281
4.2716599 -1.8598945 0.5920698
4.2158856 -1.8153892 0.58798301
4.1815925 -1.7846097 0.57661921
4.2189217 -1.7829591 0.5935685
4.1795874 -1.7587868 0.57783312
4.2133179 -1.7514049 0.58310223
4.2634625 -1.7543253 0.59703255
4.176837 -1.7369488 0.57027531
4.2165399 -1.7219375 0.57447982
4.239161 -1.7363672 0.58422899
4.2678113 -1.7305021 0.59100348
4.3035984 -1.7228386 0.59948742
4.2518749 -1.7031157 0.58068615
4.2793832 -1.6921091 0.59605771
4.2412958 -1.66246 0.58266324
4.2773228 -1.6655692 0.59730536
4.228476 -1.6263659 0.57195067
4.2517586 -1.6348259 0.58290923
4.2744055 -1.63359 0.59527957
4.2945395 -1.620206 0.59544003
4.2492237 -1.6125878 0.57737428
4.2697406 -1.6028228 0.57819796
4.2991486 -1.6046228 0.58593541
3.3505454 1.7926404 0.59553474
3.3750634 1.785745 0.58705205
3.4039772 1.7841465 0.58326292
3.4388478 1.7859693 0.58443737
3.4583368 1.7848568 0.58596438
3.4979422 1.7950575 0.58610648
3.5300815 1.797838 0.58627295
3.5546982 1.7935936 0.58626413
3.5804012 1.7968125 0.58782691
3.3399608 1.8163538 0.58772123
3.3687079 1.8122354 0.57895237
3.3924146 1.8168042 0.57303965
3.5358539 1.8041703 0.57172573
3.5579591 1.8021119 0.58362067
3.5865326 1.8063208 0.57424444
3.6163108 1.8090421 0.58806711
3.637804 1.8201501 0.58129072
3.2592177 1.8538721 0.57556629
3.2812402 1.8473492 0.57758576
3.3111367 1.8438232 0.58428824
3.3386984 1.8407201 0.58219665
3.3693035 1.8385334 0.57248473
3.6838152 1.8395634 0.58222932
3.6904459 1.8428212 0.58903688
3.7236574 1.8562485 0.57224262
3.2586608 1.861045 0.57590353
3.2822075 1.8775157 0.5867427
3.3027279 1.8667886 0.5928793
3.7430422 1.8661305 0.5886184
3.7777221 1.8797826 0.57569975
3.2698991 1.8922052 0.57333326
3.2917483 1.9059408 0.58769703
3.79812 1.8901888 0.59244686
3.8336768 1.9050938 0.57106006
3.8535557 1.91561 0.5836581
3.3107581 1.9276359 0.58435452
3.8830476 1.9285469 0.58562809
3.9125431 1.941437 0.58759588
3.3516591 1.9642121 0.58826715
3.3645785 1.9748805 0.57723463
3.9516072 1.9565731 0.57845503
3.9734969 1.9681243 0.59166408
3.9927428 1.971765 0.57798362
3.3784173 1.9852768 0.57350409
4.0364161 1.9956582 0.5958482
4.056623 1.9996738 0.58201528
3.4092679 2.0125046 0.59623694
3.4300349 2.0291164 0.58317441
4.0795288 2.0116818 0.59557867
4.1218901 2.0285773 0.58155179
3.4688089 2.0634117 0.59702361
4.14539 2.0403595 0.59979975
4.1896868 2.0581243 0.58566213
3.4821362 2.0749989 0.5817076
3.5238266 2.1130264 0.58480084
3.5600786 2.1470137 0.59026003
3.5733089 2.1587024 0.57422644
3.5913701 2.1787324 0.58671707
3.6193604 2.2098315 0.58385658
3.6391084 2.2339611 0.58488643
3.6561787 2.2519219 0.58790588
3.6706769 2.2723851 0.57992059
3.6876314 2.2941775 0.57637095
3.7013352 2.2993038 0.59264946
3.7041078 2.315207 0.57664442
3.7218342 2.3332348 0.58504784
3.7390976 2.3551779 0.58411813
3.7708597 2.3878279 0.5912081
3.7723005 2.4024744 0.57379484
3.7934675 2.4162207 0.590841
3.8087213 2.4486387 0.58066285
3.8109977 2.4411948 0.59413594
3.8071029 2.4746876 0.58518058
3.6495016 2.5191956 0.57515365
3.6787155 2.5158355 0.58025104
3.7068563 2.5195522 0.58964986
3.7339203 2.5164125 0.5844512
3.7913866 2.5048378 0.58470607
3.648227 2.535609 0.57592529
3.6785758 2.530688 0.5891993
3.7052884 2.5200155 0.57720184
3.7332683 2.5248122 0.58484608
3.7636251 2.5208874 0.58358443
3.7832692 2.5274045 0.58332777
3.6469526 2.5520222 0.57669681
3.6668091 2.5623436 0.5889771
4.2409592 -2.3467619 0.6122902
4.2740021 -2.3567076 0.61117059
4.3081031 -2.3585138 0.61492944
4.3375587 -2.3575768 0.61771208
4.3581567 -2.3459373 0.62047058
4.3910832 -2.3433018 0.6269418
4.0037179 -2.3190753 0.60914272
4.028358 -2.3309441 0.60415113
4.1497746 -2.3129783 0.60071099
4.1864891 -2.3228092 0.61309075
4.2126489 -2.3308158 0.62309253
4.3341069 -2.3363881 0.60400337
4.3675027 -2.3288848 0.60937601
4.3992367 -2.3220952 0.61718744
4.4204416 -2.3181984 0.61140281
3.9789038 -2.2957432 0.60953099
4.0022054 -2.308099 0.60428488
4.1007004 -2.285522 0.60666716
4.1105046 -2.2908998 0.60875595
4.151762 -2.3053341 0.62207556
4.4249101 -2.2941074 0.61240113
4.4408832 -2.2938948 0.61325538
3.9450779 -2.2523601 0.60504252
3.9657233 -2.2741365 0.61017913
4.0358009 -2.2569585 0.61622304
4.0666823 -2.2689543 0.61531633
4.4339499 -2.2628582 0.61410576
4.4401493 -2.2736733 0.62101233
3.9274933 -2.234756 0.60552746
3.9438417 -2.2364388 0.60579091
3.9622815 -2.2340233 0.60940439
3.9981983 -2.2437384 0.61537117
4.432569 -2.2395301 0.61266541
4.3937092 -2.1985483 0.6108259
4.4122543 -2.2163212 0.61393583
4.3433681 -2.164834 0.62306929
4.3644037 -2.1753955 0.61431104
4.38763 -2.1868112 0.61457443
4.3183961 -2.1387031 0.61035538
4.3281312 -2.1516562 0.62320048
4.2737684 -2.1084375 0.61326975
4.2971177 -2.1252851 0.61907613
4.2292538 -2.0759766 0.60213578
4.2401295 -2.0841732 0.6192649
4.2092257 -2.0555902 0.61753309
4.1655369 -2.0149708 0.61043721
4.1868896 -2.0287814 0.61850804
4.4529476 -2.0113935 0.62760848
4.4861937 -2.0127931 0.6216011
4.1532636 -1.9921572 0.60831726
4.185379 -2.0021272 0.62431443
4.2117119 -1.9891727 0.61704457
4.2443094 -1.9880282 0.61982387
4.2797284 -1.9928859 0.62503946
4.3062782 -1.9896203 0.61295211
4.3424048 -1.9929533 0.61673671
4.3714824 -1.9930488 0.61471057
4.4250269 -1.9984553 0.61238658
4.4618111 -1.9933014 0.61741108
4.1617813 -1.9778042 0.60510665
4.201488 -1.9797157 0.60607719
4.2410007 -1.9728811 0.60318023
4.3035836 -1.9758584 0.6003648
4.4316607 -1.9660677 0.61596185
4.3673716 -1.9259069 0.62683916
4.3887725 -1.9353222 0.61360949
4.3311477 -1.9019207 0.61572278
4.2752414 -1.8666831 0.61660987
4.3078728 -1.8834723 0.61160535
4.212738 -1.8427871 0.62604445
4.2473764 -1.847096 0.61705393
4.1688805 -1.8076619 0.62207246
4.1896887 -1.8164377 0.62090641
4.2184744 -1.8150971 0.60925001
4.1553383 -1.7875065 0.62324882
4.1873755 -1.7821136 0.62538135
4.2217884 -1.7910933 0.61512095
4.2475595 -1.7858602 0.61898196
4.2756066 -1.779188 0.61419165
4.3036876 -1.7756892 0.62192863
4.3325872 -1.7726991 0.6287809
4.2846141 -1.745517 0.6023699
4.3078752 -1.7545238 0.61278445
4.330637 -1.754643 0.62516916
4.3051763 -1.7206974 0.61378318
4.3283396 -1.7321144 0.6217677
4.2808094 -1.6860479 0.61178267
4.3043327 -1.7042235 0.61810637
4.2793999 -1.6690645 0.61184579
4.3018713 -1.6640933 0.62531602
4.2767143 -1.6437805 0.60715246
4.3037 -1.6363037 0.61586988
4.334681 -1.6315187 0.62099689
4.3626156 -1.6270103 0.61005509
4.3872657 -1.6356726 0.6237781
4.3162928 -1.6193058 0.6003074
3.3267465 1.7908828 0.62163347
3.3453057 1.7878069 0.61425883
3.3762262 1.7811345 0.6124866
3.4100618 1.7798619 0.61444777
3.4368405 1.7793325 0.61296511
3.4621964 1.7812351 0.61491919
3.499583 1.7939037 0.61184454
3.5195441 1.7959877 0.61773896
3.5451329 1.7989086 0.61734349
3.5814273 1.7957933 0.6094774
3.3258958 1.8018391 0.62214851
3.3378263 1.8158653 0.61357874
3.5575321 1.8004194 0.61396295
3.5796294 1.8029633 0.62069201
3.6225791 1.8082449 0.6187976
3.6588252 1.8208622 0.61298579
3.6608524 1.8202631 0.6290791
3.3380597 1.8439919 0.61400616
3.6746459 1.8318384 0.6010952
3.7115316 1.8433537 0.62113708
3.7283137 1.8548722 0.60920858
3.3133316 1.8771845 0.60395813
3.3403375 1.8733457 0.6181922
3.7446022 1.8656694 0.60100329
3.7662265 1.8667452 0.62962437
3.7918675 1.8838193 0.61540401
3.3130786 1.906871 0.60834372
3.3343322 1.9006823 0.622159
3.3283176 1.9311556 0.61446863
3.3398671 1.9397762 0.62175339
3.8898094 1.9336523 0.61670274
3.3539805 1.9635259 0.60669774
3.3706431 1.973088 0.62538147
3.9542339 1.9643923 0.60514373
3.9761381 1.9759872 0.61850226
3.3977864 2.0013771 0.61865872
4.016191 1.9915472 0.60947078
3.4102139 2.0122249 0.60374916
4.0608912 2.0160935 0.62790668
4.0958614 2.0253174 0.61708885
3.4672785 2.0599828 0.61515301
4.1473522 2.0443017 0.61844909
4.1942453 2.0659292 0.62806731
3.515945 2.1036844 0.61305249
3.5635562 2.1459856 0.61786783
3.594883 2.1776943 0.61460257
3.6256604 2.2097206 0.60708332
3.6435397 2.2260365 0.61557454
3.6614218 2.2423933 0.62411004
3.6759453 2.2628095 0.6163013
3.7000012 2.2935414 0.61314648
3.7316148 2.3311908 0.61115408
3.7423339 2.3487628 0.60610348
3.7625437 2.3616614 0.62301219
3.7784965 2.3861623 0.61314857
3.7984004 2.4064424 0.62435424
3.8147461 2.4289343 0.61632663
3.8191624 2.4496467 0.61147571
3.8090799 2.4794006 0.60446954
3.8225026 2.4740808 0.61868376
3.7105567 2.515744 0.61718154
3.7403111 2.5138156 0.61237544
3.7641728 2.5106452 0.62017608
3.8011425 2.509222 0.61529529
3.8204136 2.4959478 0.62566924
3.6893208 2.5383618 0.60781252
3.7092481 2.5333245 0.61846977
3.7413826 2.5232046 0.61257637
3.7662802 2.5201025 0.60466349
3.7854049 2.5267735 0.60028446
3.6868694 2.5633957 0.60485381
3.7075195 2.5614357 0.62348598
3.685061 2.5801363 0.60150516
3.7036445 2.593801 0.61392307
3.7235384 2.6040483 0.62646186
4.3433704 -2.3765819 0.6521101
4.3634629 -2.3758984 0.6433121
4.391551 -2.3770981 0.65305692
4.2571402 -2.3463495 0.64552844
4.3030119 -2.3615077 0.64489651
4.3604503 -2.3567553 0.63179123
4.4005585 -2.3573828 0.64421642
4.4277234 -2.3512924 0.64819854
4.1951733 -2.320502 0.64420289
4.4247103 -2.3249853 0.64153934
4.1342239 -2.2949579 0.64271539
4.4224091 -2.2959416 0.64252865
4.0378489 -2.2575638 0.63248426
4.0759559 -2.2707679 0.63745141
4.3982954 -2.2602851 0.65149665
4.4221292 -2.2616034 0.63770407
4.4412909 -2.2740104 0.63007188
4.374527 -2.2351966 0.65610498
4.3958101 -2.2353778 0.64818132
4.4242425 -2.2391217 0.63569051
4.3487873 -2.1925111 0.64838409
4.3650465 -2.2067311 0.64764053
4.3921967 -2.2101367 0.63590914
4.3363061 -2.1750128 0.64507824
4.2806993 -2.1332796 0.65281701
4.3019776 -2.1439126 0.64598399
4.3228693 -2.1544313 0.63608432
4.2785401 -2.1169708 0.64631313
4.2511296 -2.0856051 0.64199364
4.2773027 -2.0895381 0.65487325
4.2099447 -2.0410852 0.6332376
4.2378674 -2.0583367 0.64308262
4.2299762 -2.016999 0.64806414
4.2376318 -2.0260947 0.64933968
4.2718687 -2.0195525 0.65816319
4.3349724 -2.0145929 0.65674782
4.366786 -2.0162096 0.6512776
4.3996344 -2.0180981 0.64581382
4.4217958 -2.0133731 0.64837432
4.4552512 -2.0120745 0.64589715
4.4886951 -2.0157933 0.63992387
4.2206507 -2.004576 0.63545209
4.2486525 -2.0027728 0.64516443
4.2743621 -2.0019515 0.64720815
4.2976398 -2.003412 0.64847893
4.3309345 -2.0047078 0.63059664
4.371933 -2.0038905 0.64722359
4.3987699 -1.9983928 0.65215451
4.4203105 -1.996634 0.64764869
4.4593716 -1.9917331 0.64593315
4.487216 -2.0040507 0.63585997
4.3304825 -1.9567697 0.65946603
4.3622561 -1.9578851 0.65400648
4.3959866 -1.963976 0.65287006
4.4229012 -1.9670787 0.6435467
4.2852678 -1.9240849 0.65924233
4.3068056 -1.9335923 0.6552887
4.3321109 -1.9319251 0.64638805
4.392879 -1.9453764 0.6402086
4.2414675 -1.8965039 0.65883785
4.2718201 -1.9056826 0.64868796
4.3016281 -1.9018092 0.63472575
4.3448219 -1.9161525 0.63095826
4.1969886 -1.8606452 0.65030432
4.2176352 -1.871716 0.64626241
4.2471056 -1.8761953 0.6362319
4.2792258 -1.887917 0.63462144
4.156414 -1.8347657 0.65854359
4.1830955 -1.8429199 0.64330572
4.2132807 -1.8429474 0.6303525
4.1328697 -1.8001733 0.65496647
4.1536551 -1.8193891 0.64652658
4.170619 -1.8165399 0.63019276
4.1212001 -1.7841256 0.64304388
4.1672955 -1.7737364 0.63220489
4.21521 -1.7738208 0.63813561
4.2488003 -1.7776794 0.63463473
4.2701349 -1.7777859 0.63541168
4.3058457 -1.7777839 0.63807082
4.3342695 -1.7731966 0.64213902
4.0981898 -1.7512809 0.64642537
4.1273561 -1.7505491 0.64378488
4.1642785 -1.7571236 0.64499068
4.1882491 -1.7571416 0.6494469
4.2230272 -1.7592335 0.6489746
4.2487912 -1.7591575 0.6471383
4.2705903 -1.7535664 0.65556002
4.3021488 -1.7560869 0.65151262
4.3325415 -1.7539572 0.6411317
4.1270771 -1.732262 0.65393573
4.2261877 -1.7134533 0.65876502
4.2462397 -1.7170904 0.65493226
4.2745643 -1.7224455 0.65143442
4.3087602 -1.7214669 0.64243293
4.3299518 -1.7340473 0.63357145
4.225174 -1.7004013 0.65937859
4.2441754 -1.6951119 0.65305722
4.278089 -1.6925367 0.64283228
4.306334 -1.7019176 0.63595867
4.2115278 -1.6657232 0.65413839
4.2410669 -1.664277 0.64869028
4.2750993 -1.6674981 0.64269924
4.3036776 -1.6641924 0.63995004
4.1996593 -1.6402093 0.6571452
4.2193537 -1.6391696 0.65357912
4.2394204 -1.6338743 0.65593594
4.2715611 -1.6414678 0.65317804
4.3029594 -1.6444241 0.64753318
4.3332272 -1.640505 0.64329201
4.3667221 -1.6370648 0.63665414
4.3904715 -1.6410657 0.64621288
4.4255915 -1.6445992 0.65400463
4.2271419 -1.4849384 0.65712082
4.1627488 -1.4468437 0.65258777
4.1838508 -1.4593736 0.65126097
4.1388831 -1.4168295 0.64329094
4.1441827 -1.4268616 0.6521852
4.1267743 -1.3935134 0.64742148
4.1333451 -1.3729275 0.65035933
4.1552839 -1.358855 0.65157348
4.1547284 -1.3435527 0.6574434
4.1814117 -1.3430945 0.65550649
3.3282948 1.7939935 0.63634884
3.3479118 1.7916062 0.64216685
3.3783636 1.7913371 0.64618438
3.4095321 1.7919977 0.64262295
3.4379747 1.7890518 0.64055163
3.4649165 1.7904876 0.64196736
3.4904211 1.792106 0.64513963
3.5212014 1.7948363 0.64361185
3.5517194 1.7971406 0.646716
3.3281496 1.803552 0.64165449
3.3416903 1.8148941 0.64437026
3.4506655 1.8008926 0.65784347
3.5857577 1.8024371 0.64523739
3.617321 1.8061053 0.64366513
3.6473856 1.8173182 0.65735698
3.6628792 1.819664 0.6451723
3.3493648 1.8463356 0.64178389
3.7061758 1.8375648 0.64355528
3.7525265 1.8552241 0.65841019
3.3510022 1.8698516 0.63405037
3.3664856 1.8784353 0.65070081
3.7683172 1.8661274 0.6462217
3.3480651 1.9070947 0.63543344
3.3657038 1.9048656 0.64685732
3.8250337 1.8903942 0.65530318
3.8521795 1.9078211 0.64534134
3.3462796 1.9306724 0.63690943
3.369426 1.9371899 0.65281206
3.8892088 1.930954 0.63741124
3.359199 1.9547487 0.64321059
3.3740692 1.967714 0.64961541
3.3876801 1.9898431 0.6519987
3.4006119 2.0005422 0.64109033
3.9997282 1.9870838 0.64524329
3.4162521 2.017813 0.65668935
3.4380245 2.0341814 0.65164405
4.062026 2.015758 0.63691497
4.0849628 2.0278578 0.65079093
3.4630964 2.0553353 0.64378709
4.1497569 2.0571578 0.64674938
3.5002925 2.0875607 0.6502471
4.1958675 2.0746019 0.64715868
3.5188818 2.1028161 0.63636637
3.5633421 2.1419058 0.64832646
3.5973918 2.1769528 0.63452083
3.6161377 2.188025 0.65473104
3.6469119 2.2210708 0.63964957
3.6661525 2.2330155 0.65624863
3.6796701 2.2536905 0.64042646
3.6984394 2.272172 0.64939791
3.7137163 2.2961612 0.64191806
3.7329681 2.3082259 0.65869105
3.740221 2.3296397 0.64292425
3.7651851 2.3608806 0.64398062
3.7826438 2.3828678 0.64466786
3.8010705 2.4056535 0.64555013
3.8185041 2.4278238 0.64615607
3.8365707 2.4551017 0.64715707
3.8303959 2.4778209 0.64318514
3.7126057 2.517853 0.63529253
3.7324727 2.515435 0.63901144
3.7615094 2.5073378 0.64650649
3.7930541 2.506207 0.64857835
3.8184581 2.5016339 0.64526325
3.7119584 2.5261891 0.63568437
3.7315464 2.5361784 0.64555842
3.7522275 2.5211072 0.64731169
3.7291188 2.5639157 0.64463353
3.7347872 2.5923729 0.64308947
3.7436481 2.6183033 0.64347875
3.7623842 2.6371028 0.65239596
4.3455892 -2.3772376 0.66972494
4.389657 -2.3891196 0.67474043
4.4210286 -2.3849151 0.67432338
4.4566164 -2.3852317 0.67929548
4.4785028 -2.3775375 0.68162709
4.2598534 -2.3471515 0.66706848
4.2826018 -2.3507476 0.68521303
4.3022003 -2.3618679 0.67260766
4.3249388 -2.3655875 0.68235677
4.4522147 -2.3572578 0.66245991
4.476655 -2.353744 0.68274558
4.1973095 -2.3211334 0.66115975
4.2396851 -2.3358161 0.67518133
4.4506202 -2.3271496 0.66992539
4.1765747 -2.3095851 0.66480553
4.426126 -2.2964506 0.67243397
4.3785067 -2.2582221 0.67286479
4.3969312 -2.2740011 0.67633843
4.3333569 -2.2266803 0.67239106
4.3602705 -2.2383609 0.66751969
4.3097534 -2.1977839 0.67269748
4.3323088 -2.2062018 0.67776513
4.3576379 -2.2114716 0.66434777
4.3075471 -2.171345 0.67268699
4.3291383 -2.1793339 0.6702053
4.305655 -2.1449995 0.67517877
4.3281517 -2.138705 0.68976092
4.2797585 -2.1073589 0.66276026
4.3035011 -2.1207249 0.67412651
4.3360071 -2.1128018 0.68488735
4.2787399 -2.0942366 0.66337705
4.3001118 -2.0874898 0.66910851
4.3304977 -2.0888565 0.68510246
4.2756829 -2.0548697 0.66522771
4.3194861 -2.0410638 0.68552804
4.3212032 -2.0631807 0.68448836
4.2733216 -2.0216913 0.66853225
4.2974577 -2.0394301 0.68014151
4.3360882 -2.0149226 0.66560435
4.368474 -2.0167084 0.66467428
4.2488618 -1.9930495 0.6808967
4.2720251 -1.9939562 0.67681581
4.304111 -1.9980148 0.67601568
4.3357158 -1.9996021 0.67297852
4.3654561 -1.9949082 0.6678465
4.4012012 -2.0097206 0.66425538
4.1887693 -1.9557317 0.68341303
4.2168088 -1.962921 0.68732256
4.2369046 -1.9665819 0.68383151
4.2806435 -1.963957 0.68093312
4.3041501 -1.9650333 0.67712772
4.3335371 -1.9750561 0.6719144
4.2163482 -1.9399818 0.68818176
4.2477813 -1.9366276 0.68298554
4.2753215 -1.9346745 0.67477876
4.3086019 -1.9427669 0.6636802
4.2238245 -1.8967987 0.67960805
4.2447758 -1.911651 0.6754818
4.2637177 -1.9145739 0.6630981
4.1895628 -1.8654103 0.66891634
4.2070379 -1.8764647 0.67433441
4.1574821 -1.8350811 0.66702199
4.1784153 -1.8460279 0.67362916
4.1339316 -1.800487 0.66339815
4.1565151 -1.8181542 0.67064875
4.1779294 -1.8228825 0.68538928
4.1340075 -1.788097 0.67242706
4.1559811 -1.7888737 0.68618059
4.1095181 -1.7413454 0.66119111
4.1240759 -1.7542789 0.67318571
4.1530056 -1.7505509 0.68798208
4.1887112 -1.7404581 0.66453862
4.219563 -1.748646 0.66323376
4.2497139 -1.7480335 0.66220236
4.1292019 -1.7328898 0.67079914
4.1572495 -1.7326767 0.67212325
4.1844449 -1.7323365 0.67647272
4.2202053 -1.7268109 0.67414463
4.2445836 -1.7353139 0.67022419
4.2084274 -1.6946607 0.67888033
4.1831927 -1.6603335 0.6740281
4.2027607 -1.6664935 0.66454089
4.1843362 -1.6371051 0.67167944
4.2111177 -1.6316801 0.67391557
4.2407532 -1.6257205 0.67231452
4.2720218 -1.6265136 0.66707832
4.3043671 -1.6274564 0.67051065
4.3373966 -1.6306267 0.67387676
4.371027 -1.6353902 0.67282838
4.39433 -1.6333148 0.68287849
4.4273176 -1.6451095 0.66771114
4.4501243 -1.6396182 0.68485421
4.2211456 -1.6141943 0.68512589
4.2404909 -1.6085484 0.68184638
4.2724833 -1.6115599 0.68099105
4.3050046 -1.6146073 0.68442261
4.3268156 -1.6136761 0.68978244
4.3085546 -1.5335255 0.68197119
4.3436728 -1.5497131 0.68938613
4.3660727 -1.5573072 0.68552279
4.2528205 -1.5062063 0.67888641
4.2742915 -1.5148498 0.67497319
4.1887259 -1.4720889 0.6823107
4.2088709 -1.4821913 0.67484313
4.2300153 -1.4943352 0.67412841
4.166369 -1.4527194 0.67806476
4.1864262 -1.4629536 0.66979349
4.1249452 -1.4205233 0.68367881
4.1430511 -1.4248323 0.67178011
4.1219611 -1.3932924 0.67788124
4.1413965 -1.40642 0.67081606
4.1290998 -1.3655263 0.67667013
4.1574526 -1.3548706 0.67193401
4.1331124 -1.3432838 0.68534374
4.1566644 -1.3413216 0.67471713
4.185544 -1.3394854 0.67591792
4.216691 -1.336543 0.67282134
4.2596722 -1.3405374 0.67434454
4.2748723 -1.3391815 0.68378514
3.34689 1.7942407 0.67266864
3.3691392 1.7970674 0.67465234
3.3918617 1.7996196 0.68029833
3.4351358 1.7984285 0.6614272
3.4667456 1.7947775 0.66114283
3.497021 1.795863 0.66692919
3.5242922 1.7908653 0.67205924
3.5552123 1.7891532 0.6752075
3.5840249 1.7921624 0.68410927
3.601058 1.7942866 0.68430334
3.3455193 1.8073902 0.67044115
3.3708537 1.8145863 0.67855859
3.405941 1.8018508 0.67298234
3.4295022 1.806887 0.67421311
3.4598727 1.8067774 0.67506534
3.4897039 1.8071175 0.68084073
3.5173883 1.8039854 0.68461835
3.5984557 1.802797 0.66889983
3.6149817 1.8041579 0.67267752
3.6414516 1.8116612 0.67516077
3.683816 1.8291283 0.67389297
3.3574524 1.839133 0.66569191
3.3725479 1.8471003 0.67876816
3.7125895 1.8381265 0.67282921
3.7535665 1.8549167 0.66666687
3.3821063 1.8709354 0.67400819
3.7730212 1.864737 0.68356574
3.8276889 1.8896095 0.67638236
3.3806853 1.9083297 0.66314816
3.4010429 1.9039911 0.67778379
3.3783746 1.9380906 0.6645472
3.4005792 1.9360069 0.67928869
3.4280143 1.9258664 0.68999392
3.9179232 1.934111 0.68127012
3.9422154 1.9498756 0.67026806
3.3781912 1.9654052 0.68159902
3.3954909 1.9601088 0.6799559
3.9718211 1.9682288 0.66449606
3.3893766 1.9856899 0.6629864
3.3939712 1.9879665 0.67724419
3.4181449 2.0172536 0.67171383
3.4200373 2.0166943 0.68673831
4.1021667 2.0353591 0.67522645
4.110208 2.0392756 0.6829915
3.4481802 2.0459011 0.68054563
3.4615846 2.0575018 0.66586632
4.1737084 2.0697632 0.66099834
3.4787092 2.0755193 0.68582821
3.500463 2.0924883 0.67692596
4.1986642 2.0829277 0.67557544
3.5300803 2.1149325 0.66991347
3.5544324 2.1359601 0.67668468
3.5713866 2.151413 0.68528801
3.5861681 2.1626799 0.68159199
3.6074898 2.1795056 0.67181873
3.6687129 2.2322588 0.67657524
3.71031 2.2721252 0.67193103
3.7207243 2.2778835 0.68655002
3.7169602 2.2870989 0.66216981
3.7354906 2.3020508 0.67502713
3.75178 2.3295953 0.66997409
3.7694387 2.357794 0.6765101
3.7857032 2.3902385 0.67457706
3.8040562 2.419035 0.67893875
3.8211877 2.4270306 0.66746294
3.8025956 2.445142 0.6847766
3.8286073 2.4477818 0.6714136
3.7991455 2.479722 0.68017381
3.8232942 2.475188 0.67028618
3.7737777 2.5064392 0.67725539
3.7965345 2.4999084 0.67262954
3.8149328 2.4985812 0.66513455
3.7571673 2.5336292 0.67368561
3.7495604 2.5753992 0.66246694
3.755022 2.5606415 0.6708436
3.7690353 2.5937624 0.67710572
3.7656212 2.6154587 0.66404825
3.7870817 2.6261263 0.68139392
3.7917664 2.6511183 0.67395437
4.4376526 -2.4006405 0.69551027
4.4608827 -2.4042749 0.70108867
4.4846787 -2.4079754 0.7112273
4.5075812 -2.4048164 0.71052778
4.3708715 -2.3786674 0.70173675
4.3930473 -2.3819647 0.70719242
4.4250731 -2.3917484 0.70777309
4.4607468 -2.3953433 0.70604616
4.4822464 -2.3983154 0.69799131
4.5052524 -2.3826065 0.70665371
4.3042636 -2.3539302 0.69479251
4.3376913 -2.3678079 0.6982429
4.4785571 -2.3435764 0.70512789
4.5042548 -2.3656082 0.7100758
4.4545236 -2.322376 0.70493853
4.4075904 -2.2806127 0.71334845
4.4304919 -2.3012772 0.70469314
4.3827133 -2.2594657 0.7062602
4.3585892 -2.2345207 0.69964099
4.3347564 -2.2098064 0.69524121
4.3640957 -2.204318 0.70736694
4.3800821 -2.2149887 0.71504182
4.3671608 -2.1755764 0.71068764
4.3678145 -2.1477146 0.71024305
4.3958492 -2.1364992 0.71563673
4.3378077 -2.1219897 0.69330287
4.3704119 -2.1116223 0.70651925
4.3951502 -2.1275024 0.71605968
4.3461823 -2.0852671 0.70000327
4.3699312 -2.0983703 0.71160275
4.3335018 -2.0571902 0.70225543
4.2779026 -2.0213358 0.70606494
4.2989812 -2.0312846 0.6980719
4.212822 -1.9830652 0.69605589
4.233387 -1.9926394 0.69236493
4.1901751 -1.9603294 0.69173449
4.249886 -1.9500017 0.69103473
4.1885133 -1.9389278 0.69274062
4.2205491 -1.9266837 0.69848806
4.2488461 -1.9263152 0.69865662
4.2263308 -1.9017675 0.69663674
4.2483134 -1.9091543 0.70597178
4.2248573 -1.8759646 0.70216519
4.212049 -1.8454298 0.70092887
4.1884623 -1.810557 0.69720143
4.2001233 -1.8195215 0.70374382
4.1560574 -1.7764151 0.69525933
4.1772132 -1.7933959 0.69958186
4.1550655 -1.7636409 0.69585991
4.1816802 -1.7487711 0.70041132
4.2148466 -1.7447587 0.70977163
4.2347617 -1.7414925 0.70951444
4.1912808 -1.7328078 0.6906513
4.212142 -1.732685 0.69595385
4.2325401 -1.7248951 0.70270145
4.2087817 -1.6894126 0.69798797
4.2310457 -1.693635 0.71176416
4.2066698 -1.662213 0.69926673
4.2085118 -1.6358044 0.70226431
4.3721251 -1.6209803 0.69155371
4.4173932 -1.6280708 0.69312906
4.4629703 -1.6260623 0.69517255
4.2185621 -1.604913 0.7033112
4.2407784 -1.5915383 0.69573295
4.261858 -1.5948329 0.69226778
4.3050842 -1.601593 0.69390643
4.3411355 -1.6012625 0.69407886
4.3707199 -1.6028838 0.69240439
4.3942752 -1.6110711 0.6975373
4.415617 -1.6051922 0.69420457
4.2207813 -1.5768919 0.70748949
4.2394199 -1.5740417 0.69655544
4.2823133 -1.5762858 0.69855392
4.3030119 -1.5749054 0.69516087
4.3468966 -1.5770365 0.69707412
4.3686128 -1.575739 0.69368047
4.4138403 -1.5823138 0.69528008
4.1983609 -1.5442742 0.71171582
4.2179666 -1.5480752 0.70414352
4.2411175 -1.5422684 0.69738704
4.2805963 -1.5541692 0.69959354
4.3009396 -1.5482178 0.69641542
4.3219538 -1.5510602 0.69272596
4.1854196 -1.5120616 0.71054423
4.2144675 -1.5144513 0.69849253
4.245255 -1.5185478 0.69532788
4.2774258 -1.5273013 0.69203377
4.1333199 -1.4701492 0.71814978
4.1524825 -1.4793984 0.71149665
4.179204 -1.4867132 0.69773877
4.131896 -1.4551671 0.71673077
4.1507936 -1.4542928 0.70213485
4.1281319 -1.4242387 0.70709628
4.1253762 -1.3959407 0.70387965
4.1231055 -1.364256 0.70691335
4.1252203 -1.3367257 0.7037316
4.1556454 -1.3303556 0.70678455
4.1864505 -1.3304753 0.70508736
4.2132306 -1.3355306 0.70020121
4.2428098 -1.3356344 0.71322614
4.2738538 -1.3403425 0.70350486
4.3052845 -1.3363771 0.70281792
4.3378439 -1.3413022 0.69294381
4.3611393 -1.3391109 0.70301229
4.396513 -1.3447162 0.71557605
4.4185667 -1.3419414 0.70770425
4.4412689 -1.3392701 0.71327031
3.3526955 1.7889405 0.71632326
3.3718457 1.7935425 0.70580477
3.3946607 1.7987922 0.70251989
3.5627158 1.7941765 0.69580674
3.5858843 1.7993151 0.70410037
3.6020517 1.7939929 0.6921913
3.3674214 1.811764 0.70520759
3.411097 1.8003269 0.71391451
3.4327273 1.8111899 0.70338678
3.4602029 1.8149419 0.70386839
3.4953132 1.8187298 0.70645636
3.528857 1.8106524 0.70349705
3.5587592 1.8068745 0.70733517
3.5862608 1.8069061 0.71231925
3.6071577 1.8037218 0.70744252
3.6410923 1.8100169 0.7060914
3.6829028 1.8254852 0.70101613
3.3844068 1.8480748 0.69366568
3.3916609 1.8432956 0.70832211
3.7402134 1.8513554 0.70367724
3.415401 1.8752762 0.70726538
3.7945373 1.8748131 0.70918816
3.829813 1.8889817 0.69324589
3.4158404 1.893307 0.69222677
3.4316645 1.9026699 0.70395422
3.8512983 1.8998859 0.71095341
3.4375556 1.9358691 0.69921291
3.4612386 1.9378322 0.71345472
3.907939 1.9255896 0.70393306
3.3793387 1.9650706 0.70614076
3.4033992 1.9574865 0.70311332
3.4367077 1.9604223 0.70898354
3.4653442 1.9565347 0.71568394
3.9890287 1.9635339 0.71496797
4.0082283 1.97588 0.70682013
3.3806844 1.9846594 0.71496743
3.395628 1.9996585 0.70278287
4.0377684 1.9946095 0.69666052
3.4069805 2.0133362 0.70161426
3.4250042 2.0301757 0.70340735
4.0688343 2.013746 0.69096363
4.115509 2.0287676 0.71900451
3.4396613 2.0467465 0.70435631
3.4554503 2.0638392 0.70801526
4.1371989 2.0420411 0.71530235
4.1578827 2.0547562 0.7112602
4.1795464 2.0680377 0.70734584
3.4658587 2.0749388 0.71249741
3.4855926 2.0887191 0.70693064
4.2021885 2.0818858 0.70355219
3.5194249 2.1146913 0.70151311
3.5267358 2.1310019 0.71943247
3.549077 2.1407704 0.70630652
3.5838668 2.171087 0.71245623
3.6053011 2.1824343 0.70261914
3.6217568 2.1981516 0.7073434
3.6451721 2.2127695 0.69391108
3.6559603 2.2263346 0.71687365
3.6726875 2.2390637 0.71354729
3.6884181 2.2511051 0.70987433
3.7061095 2.2645304 0.70664203
3.7222846 2.2774224 0.69893509
3.7325869 2.2913375 0.71817827
3.7675612 2.3239434 0.70524627
3.7733603 2.3420017 0.69770634
3.7923543 2.3613791 0.70911789
3.7897899 2.3857205 0.70477182
3.7874479 2.4145477 0.70528227
3.7879076 2.4446921 0.70755321
3.7899349 2.4738009 0.69992703
3.7790844 2.5066643 0.69975835
3.7835388 2.5001929 0.70810813
3.7771792 2.5334313 0.70242441
3.7742116 2.5605121 0.69665879
3.7953212 2.5737667 0.71290541
3.7716403 2.5847175 0.69216573
3.7929986 2.5924814 0.70670748
3.8089921 2.6313767 0.7069506
3.8109987 2.6224194 0.71720147
3.8068533 2.6431611 0.6975441
3.827615 2.6609912 0.71406502
3.825007 2.6746573 0.70211697
3.8443327 2.6969588 0.70998532
4.5094228 -2.4031122 0.72667384
4.5314732 -2.4060428 0.72313046
4.4169669 -2.3800764 0.72213125
4.4555707 -2.3889971 0.72856897
4.4859247 -2.3922493 0.73204541
4.5090456 -2.3837276 0.73676556
4.5313349 -2.3969574 0.72817349
4.5073609 -2.3620293 0.73778564
4.4572859 -2.3172653 0.73089236
4.4824367 -2.3357818 0.7420013
4.4331932 -2.2932348 0.73214293
4.3962831 -2.2616086 0.72473574
4.3882179 -2.2316911 0.72465986
4.4033446 -2.2046411 0.73037839
4.4008999 -2.1731527 0.73185855
4.3980656 -2.1437466 0.72875476
4.4226546 -2.1575108 0.73852313
4.3961444 -2.1190057 0.72991771
4.3705721 -2.0854502 0.72559172
4.3473511 -2.0617101 0.72550845
4.2570543 -1.7459291 0.72337389
4.2553558 -1.7240585 0.72440195
4.2389736 -1.692358 0.7222988
4.229435 -1.6591522 0.72206306
4.2304997 -1.6637179 0.72763366
4.2247081 -1.6362467 0.72657251
4.2155185 -1.6075625 0.72610861
4.2024894 -1.5752112 0.72431791
4.1875663 -1.5420792 0.72409284
4.2002006 -1.5515829 0.72172964
4.1778107 -1.5185753 0.72647542
4.1546893 -1.4898088 0.72239065
4.1293526 -1.4190522 0.72055179
4.1267076 -1.3849877 0.72215319
4.1480422 -1.404202 0.72641492
4.1250544 -1.3636973 0.72315401
4.4942331 -1.3540975 0.74755102
4.1227398 -1.3338908 0.72455519
4.1515446 -1.3215792 0.72873694
4.1816435 -1.3262463 0.72369123
4.2156663 -1.3260138 0.73745835
4.2445612 -1.3304214 0.73101872
4.2770581 -1.332634 0.73482084
4.3086495 -1.3373718 0.72953433
4.3325481 -1.3354596 0.74432015
4.3537498 -1.3414901 0.73176378
4.398808 -1.3453946 0.73379761
4.4202981 -1.3424531 0.72145092
4.4528141 -1.3485771 0.73783559
4.4905691 -1.3438625 0.72467762
3.3528461 1.790331 0.7376954
3.3774736 1.7873852 0.73591655
3.4100304 1.7990441 0.73521805
3.373529 1.8170335 0.73216492
3.4120345 1.8000499 0.72135675
3.4314752 1.8033537 0.73372024
3.4667602 1.814029 0.73604882
3.499949 1.8191788 0.73731178
3.5307949 1.8218206 0.73270726
3.5571778 1.8213017 0.73058784
3.5792298 1.8206881 0.73439157
3.613018 1.8184251 0.73220855
3.6449306 1.8238143 0.73504287
3.6723878 1.8247507 0.72601867
3.3818638 1.8322885 0.74453783
3.4056466 1.849589 0.73385775
3.6059308 1.8315529 0.74926919
3.6572313 1.8301249 0.74618983
3.6737876 1.8322341 0.74249184
3.6995964 1.8362598 0.73312104
3.7345662 1.8487945 0.73414588
3.4253509 1.8727434 0.73099005
3.7622831 1.8604438 0.74136686
3.7971642 1.8740366 0.73004568
3.8176653 1.8844123 0.74761307
3.461942 1.9056743 0.73848933
3.8723431 1.9100575 0.73280573
3.3576884 1.9460281 0.74019688
3.3795295 1.9441749 0.73979169
3.4023006 1.9490031 0.74326932
3.4710197 1.9312825 0.72278845
3.486351 1.9329978 0.73902601
3.9443614 1.9435054 0.73826534
3.3571279 1.9586796 0.7442227
3.3715744 1.9616576 0.72964066
3.4112027 1.9589598 0.72991621
3.4302893 1.9620565 0.73308474
3.4660339 1.9737295 0.73297304
3.4986336 1.9694239 0.73207551
3.5110841 1.9644713 0.74227798
4.0051732 1.9707762 0.73608905
3.3786423 1.9894025 0.73683089
3.3959758 2.0068684 0.7310791
3.4987261 1.9844424 0.74302429
3.5260589 1.9864616 0.74743688
4.076345 2.0026855 0.74458718
3.4043427 2.0199935 0.73403752
3.4234838 2.0377932 0.72911966
4.0959401 2.0157225 0.73189855
3.434083 2.0524814 0.7375896
3.4521377 2.0670621 0.72712731
3.4630506 2.081753 0.73815364
3.4822235 2.0970314 0.72903901
4.2087893 2.0707831 0.74973935
3.4944534 2.1127424 0.74050671
3.5125804 2.1232719 0.73062581
3.5280876 2.1382294 0.73534179
3.5485077 2.1535032 0.73363191
3.560081 2.168951 0.74506271
3.5829031 2.1791058 0.73199975
3.5916822 2.192162 0.74649107
3.6161504 2.2071404 0.73775768
