ply
format ascii 1.0
comment PCL generated
element vertex 1495
property float x
property float y
property float z
element camera 0
property float view_px
property float view_py
property float view_pz
property float x_axisx
property float x_axisy
property float x_axisz
property float y_axisx
property float y_axisy
property float y_axisz
property float z_axisx
property float z_axisy
property float z_axisz
property float focal
property float scalex
property float scaley
property float centerx
property float centery
property int viewportx
property int viewporty
property float k1
property float k2
end_header
-2.2850132 -1.02889 3.5560002
-2.2766435 -1.0456299 3.5560002
-1.8330381 -1.0205201 3.5560002
-1.8162981 -1.0372599 3.5560005
1.9669024 -1.02889 3.5560005
2.0045671 -1.0205201 3.5560002
2.021307 -1.0205201 3.5560002
2.0673416 -1.02889 3.5560002
2.0757113 -1.0372598 3.5560002
-2.2933834 -0.99541038 3.5560002
-1.8497778 -1.0037802 3.5560005
-2.2933834 -0.97448552 3.5560002
-1.8916274 -0.96193063 3.5560002
-1.8765618 -0.97364855 3.5560002
-2.5110009 -0.95356077 3.5560002
-2.4691515 -0.94519073 3.5560005
-2.4440415 -0.9396109 3.5560005
-2.2850132 -0.94937575 3.5560002
-2.2766435 -0.93682092 3.5560002
-1.9025084 -0.94351685 3.5560002
-1.8832576 -0.95356077 3.5560002
-2.4217219 -0.91171122 3.5560005
-2.2599037 -0.92287111 3.5560005
-2.2389789 -0.90752625 3.5560002
-2.051702 -0.90961874 3.556
-2.0255461 -0.91171122 3.556
-2.008806 -0.90334129 3.5560002
-1.9041824 -0.91840714 3.5560002
1.5525918 -0.91171116 3.5560002
1.5735165 -0.90334129 3.5560002
-2.418932 -0.88660145 3.5560005
-2.229214 -0.8921814 3.5560005
-2.0255458 -0.89497131 3.5560005
-1.9041823 -0.88660145 3.556
1.5818865 -0.88241649 3.5560002
-2.410562 -0.85870171 3.5560005
-2.2180541 -0.85730672 3.5560002
-1.9033453 -0.85814369 3.5560002
1.5818865 -0.8698616 3.5560002
-2.3896372 -0.82382709 3.5560002
-2.2138691 -0.82382715 3.5560002
-1.8999974 -0.82382715 3.5560002
-2.3603425 -0.7861625 3.5560002
-2.2013142 -0.80290234 3.5560002
-2.1762044 -0.7917425 3.5560005
-2.1594646 -0.7861625 3.5560002
-1.9334769 -0.78616256 3.5560005
-1.9033453 -0.79285842 3.5560002
-2.3519726 -0.77779257 3.5560002
-2.3184929 -0.76105273 3.5560002
-2.2850132 -0.75268281 3.5560002
-2.1343548 -0.77779257 3.5560002
-2.11343 -0.76942271 3.5560002
-2.0841353 -0.76105279 3.5560005
-2.0632105 -0.75268281 3.5560002
-1.9502169 -0.76105279 3.5560005
-1.9355694 -0.77570009 3.5560002
-1.9139471 -0.77500266 3.5560005
-2.2515335 -0.74431288 3.5560002
-2.2264237 -0.73594302 3.5560002
-2.2180541 -0.7275731 3.5560002
-2.0422859 -0.74431288 3.5560002
-2.0213611 -0.73175806 3.5560002
-1.9619347 -0.73426902 3.5560002
-2.1971292 -0.70664835 3.5560002
-2.1845744 -0.69409347 3.5560002
-1.9903923 -0.71250731 3.5560002
-1.9711415 -0.71083325 3.556
-2.1762044 -0.67735362 3.5560002
-2.1427248 -0.57691467 3.5560002
-2.1343548 -0.52669519 3.5560002
-2.1217999 -0.50158548 3.5560002
-2.1092453 -0.47647569 3.5560002
-2.0925052 -0.45136598 3.5560002
-2.0757656 -0.41788632 3.5560002
-2.0673954 -0.39277658 3.5560002
-2.0171762 -0.30907744 3.5560002
-2.0004363 -0.28396773 3.5560002
-1.9753264 -0.22956327 3.5560002
-2.4607816 -0.18352877 3.5560002
-1.8665177 -0.049610149 3.5560002
-1.8497779 -0.03705528 3.5560002
-1.7744486 -0.032870322 3.5560002
-1.749339 -0.041240238 3.5560002
-1.6865646 -0.03705528 3.5560002
-2.5026309 -0.024500413 3.5560002
-1.8162981 -0.024500413 3.5560002
-1.0211564 0.059198715 3.5560002
-0.90397769 0.075938545 3.5560002
-2.5209153 -1.4501636 3.5940001
-2.5049167 -1.4567007 3.5892501
-2.4739296 -1.4509119 3.5750005
-2.5316944 -1.4267985 3.5813334
-2.5047834 -1.4312776 3.5750005
-2.478137 -1.4382899 3.5750003
-1.8181996 -1.4252267 3.5845003
1.844112 -1.4120964 3.5940001
2.3813143 -1.4172533 3.5750003
-2.4126582 -1.3898966 3.5804288
-2.3846705 -1.3934319 3.5817864
-2.3588963 -1.3930582 3.5813339
-1.827248 -1.3951777 3.5940001
1.8268821 -1.3954375 3.5892501
1.8375977 -1.3916556 3.5813339
1.8652605 -1.3951778 3.5940001
2.3876421 -1.395686 3.5845003
-2.5319443 -1.367371 3.5876667
-2.504746 -1.3577251 3.5845001
-2.472049 -1.356041 3.5845006
-2.4446483 -1.3618591 3.5858576
-2.4167891 -1.3681103 3.5908344
-2.3929534 -1.3764263 3.5892501
-2.3552082 -1.3668262 3.592273
-2.3301332 -1.3623477 3.5781672
-1.8181884 -1.3661566 3.5845003
1.8434559 -1.3788233 3.5845003
2.3981435 -1.3541435 3.5750003
2.4024296 -1.3697996 3.5940001
-2.4616997 -1.3444216 3.5940001
-2.4447811 -1.3444217 3.5940001
-2.3228905 -1.3389999 3.5908334
-2.3002746 -1.3285503 3.5797505
-1.8091736 -1.3457289 3.5750003
2.0549829 -1.3278632 3.5892501
2.0725145 -1.3317325 3.5940001
2.4160666 -1.3411947 3.5797505
2.4460354 -1.3336006 3.5876667
2.4662361 -1.3283074 3.5831432
-2.2926755 -1.3085982 3.5885715
-2.2710185 -1.2999748 3.5788007
-1.8039492 -1.3059801 3.5813339
1.9953108 -1.2944534 3.5845003
2.0237603 -1.3114848 3.5826001
2.0548263 -1.3087045 3.5750003
2.0837939 -1.3049446 3.5940001
2.4802296 -1.3046851 3.5855556
-2.2840531 -1.2852061 3.5940001
-2.2665467 -1.2798367 3.5908334
-2.2439296 -1.2699971 3.575
-1.800759 -1.2784119 3.575
1.7590749 -1.264935 3.5845003
1.7843859 -1.2733719 3.5845003
1.8115005 -1.2801104 3.5797505
1.8476522 -1.2733943 3.5845003
1.8610308 -1.2767467 3.5940001
1.9794616 -1.2682874 3.5940001
1.9879211 -1.2767467 3.5940001
2.0876939 -1.272247 3.5813339
2.4846563 -1.2817978 3.5845003
2.4967096 -1.2716771 3.5876667
-2.2840531 -1.23445 3.5940001
-2.2647173 -1.2453263 3.5940001
-2.2383199 -1.2489606 3.5750003
1.700303 -1.2513686 3.5940001
1.7232232 -1.2501758 3.5845003
1.7468294 -1.2598281 3.5940001
1.859607 -1.2489606 3.5750003
1.86949 -1.2429093 3.5940001
1.9556113 -1.2385139 3.5813334
2.0952165 -1.2363386 3.5750003
2.1063519 -1.2555983 3.5940001
2.5039418 -1.2555983 3.5940001
-2.4997668 -1.2006125 3.5940001
-2.4722741 -1.2097769 3.5940006
-2.4447808 -1.209072 3.5940001
-2.4278622 -1.2006125 3.5940001
-2.2868729 -1.2161213 3.5940001
-2.262604 -1.2140739 3.5788002
-2.2467346 -1.227924 3.5750003
1.846985 -1.2110947 3.5750003
1.8610308 -1.2175313 3.5940001
1.9362518 -1.2129031 3.5845003
2.0952165 -1.2110947 3.5750003
2.4967096 -1.209761 3.5876667
-2.5336041 -1.1836939 3.5940001
-2.5001473 -1.1820625 3.5788007
-2.4756126 -1.182485 3.5750003
-2.4434838 -1.1831443 3.5853643
-2.4278622 -1.1836939 3.5940001
-2.2840531 -1.1836938 3.5940001
-2.2635639 -1.185851 3.575
-1.8055443 -1.1847612 3.5845003
1.8223636 -1.1763353 3.5845003
1.8380426 -1.1900376 3.5876667
1.9346048 -1.1842331 3.5892501
2.0910091 -1.1858509 3.5750003
2.1097357 -1.1853857 3.5940003
2.4466565 -1.1763353 3.5845003
2.4749963 -1.1879405 3.5864003
-2.5272224 -1.1634117 3.575
-2.5117955 -1.1690216 3.5750003
-2.4416332 -1.1538755 3.5858579
-2.4278622 -1.1625454 3.5940001
-2.2882829 -1.1540861 3.5940001
-2.2691736 -1.1549972 3.575
-1.8071394 -1.1562896 3.5876667
1.826571 -1.1594837 3.5845003
1.8427776 -1.1437777 3.5750003
1.8779494 -1.1413971 3.5940001
1.9437534 -1.160607 3.5750003
1.9681072 -1.1495841 3.5826004
1.9956822 -1.1421906 3.5876667
2.020633 -1.1447023 3.5845003
2.069973 -1.160607 3.5750003
2.0866978 -1.1626071 3.5864003
2.1063519 -1.1625454 3.5940001
2.3918495 -1.1510243 3.5845003
2.4108067 -1.1626631 3.5813334
2.4360094 -1.1690216 3.5750003
-2.4427953 -1.1234857 3.5831435
-2.2855377 -1.1179051 3.5797501
-1.8013145 -1.1256909 3.5845003
1.8999586 -1.1225119 3.5876667
2.1491539 -1.115351 3.5864003
2.1782565 -1.116019 3.5940001
2.1909456 -1.116019 3.5940001
2.2713094 -1.116019 3.5940001
2.3305249 -1.1244783 3.5940001
2.3581016 -1.1299431 3.5845003
2.3728995 -1.135363 3.5750003
-2.4412682 -1.0935587 3.5817864
-2.300972 -1.0948706 3.5940001
-1.8018699 -1.0821816 3.5940001
-1.7923442 -1.0932899 3.5750003
1.9185094 -1.1017045 3.5750003
2.1170149 -1.0949274 3.5834448
2.1751556 -1.1017045 3.5750003
2.2003999 -1.1017045 3.5750003
-2.5311146 -1.0687693 3.5845003
-2.5010936 -1.0669328 3.5826004
-2.4718399 -1.0664948 3.585556
-2.4440558 -1.0678632 3.5838673
-2.4278622 -1.0652629 3.5940001
-2.2991195 -1.062436 3.5845003
-1.814559 -1.0610332 3.5940001
1.9437534 -1.0764606 3.5750003
1.962543 -1.0737222 3.5940001
2.0934474 -1.0630102 3.5864003
2.1036315 -1.0764606 3.5750003
-2.4391413 -1.0455244 3.5940001
-2.4278622 -1.0441145 3.5940001
-2.3178906 -1.0398848 3.5940001
-2.3014297 -1.0343874 3.5750003
-1.8441668 -1.0314255 3.5940001
-1.827248 -1.0483441 3.5940001
1.970022 -1.045573 3.5845003
1.9952996 -1.0413659 3.5845003
2.0266552 -1.0380523 3.5876667
2.0574813 -1.0365864 3.5826004
2.0852036 -1.0483441 3.5940001
-2.32635 -1.0060474 3.5940001
-2.3056371 -1.0133508 3.5750003
-1.8662354 -1.0014696 3.5876667
-1.8596613 -1.000729 3.5750003
-2.5039966 -0.9637506 3.5940001
-2.4659295 -0.9637506 3.5940001
-2.4447808 -0.9637506 3.5940001
-2.4236326 -0.9637506 3.5940001
-2.32635 -0.97643965 3.5940001
-1.8809745 -0.97603047 3.5858574
-2.5117955 -0.95865571 3.5750003
-2.4697223 -0.95865571 3.5750003
-2.443363 -0.94686687 3.5845006
-2.4236052 -0.94491476 3.5912857
-2.3221202 -0.94683194 3.5940001
-2.3013473 -0.94450152 3.5788007
-1.8933201 -0.9418264 3.575
-1.885573 -0.94637585 3.5831432
-2.4318566 -0.92499721 3.5750003
-2.4212472 -0.91616762 3.5853643
-2.2934723 -0.92385447 3.5901999
-2.2661641 -0.90976191 3.5813334
-2.0447834 -0.91658252 3.5750003
-2.0363686 -0.90816796 3.5750003
-1.8975272 -0.91658258 3.5750005
-1.8857956 -0.91694921 3.5858574
1.5566801 -0.90816796 3.5750003
1.5734723 -0.90635157 3.5845003
-2.4216568 -0.88687944 3.5834448
-2.2614949 -0.88197684 3.5940001
-2.2425272 -0.88292402 3.5750003
-1.8991216 -0.88536572 3.5823083
-1.8856844 -0.89791453 3.5845003
1.581924 -0.89975327 3.5750003
1.5903313 -0.88338673 3.5940001
-2.4235482 -0.8536371 3.5845003
-2.2586751 -0.85377902 3.5940001
-2.2383199 -0.85347283 3.5750003
-1.9024408 -0.85360396 3.5831432
1.5763143 -0.8492654 3.575
-2.406714 -0.82840097 3.5940001
-2.3940248 -0.81148225 3.5940001
-2.2558553 -0.82840091 3.5940001
-2.2356412 -0.82151365 3.5788002
-1.902676 -0.82410711 3.5858574
-2.3834558 -0.80088913 3.5845003
-2.3581562 -0.78402632 3.5845003
-2.2252791 -0.79877424 3.5845003
-2.2043374 -0.79174829 3.5813334
-2.17521 -0.78405213 3.5750003
-2.1541736 -0.78194845 3.5750003
-1.9034042 -0.79299009 3.5821254
-2.349719 -0.77558929 3.5845003
-2.3222353 -0.76782995 3.5876667
-2.2844179 -0.75804502 3.5813339
-2.2586749 -0.75790626 3.5940001
-2.1783113 -0.77764481 3.5940001
-2.1450245 -0.76863205 3.5858572
-2.1140864 -0.7590428 3.5804288
-2.091064 -0.75670445 3.5750003
-1.9528608 -0.75803012 3.5813334
-1.9351182 -0.76238704 3.5801821
-1.9120703 -0.77168292 3.583143
-2.2551491 -0.74828982 3.5750003
-2.2312531 -0.73975623 3.5826004
-2.2147272 -0.7249673 3.5845003
-2.0811687 -0.7464968 3.5826001
-2.0538986 -0.73737329 3.5804291
-2.0279541 -0.72585082 3.575
-1.9624484 -0.73598826 3.5834448
-2.2020717 -0.71019703 3.5845003
-2.0212502 -0.70796305 3.5892501
-1.9953655 -0.69682914 3.5845003
-1.9711007 -0.70642704 3.585556
-2.1910005 -0.68459189 3.5940001
-2.1832635 -0.6765396 3.5813339
-2.1710029 -0.65572888 3.5750003
-2.168335 -0.61951602 3.5845003
-2.1656222 -0.59999835 3.5940001
-2.1541736 -0.58841181 3.5750003
-2.1500821 -0.54851633 3.5892501
-2.1401873 -0.52555948 3.5826004
-2.1317849 -0.49002671 3.5940001
-2.1289296 -0.50426549 3.5750003
-2.1134832 -0.46762779 3.5845003
-2.091064 -0.43694839 3.5750003
-2.0839648 -0.40859121 3.5845003
-2.0712981 -0.37482086 3.5845003
-2.0544243 -0.34950989 3.5845003
-2.0315466 -0.31690404 3.5813339
-2.0218132 -0.2954616 3.5940001
-2.0027101 -0.27707034 3.5750003
-1.9922038 -0.25227258 3.5813334
-1.9879757 -0.16857126 3.5940001
-1.9774662 -0.15926547 3.5750003
-1.9690516 -0.14243619 3.5750003
-1.9287602 -0.092437066 3.5940001
-2.5124559 -0.067059003 3.5940001
-1.920301 -0.083977707 3.5940001
-2.4991736 -0.058289859 3.5750003
-1.8729954 -0.049985398 3.5845003
-1.8431547 -0.035193518 3.5797501
-1.8123935 -0.033104494 3.5813334
-1.7870899 -0.038729157 3.5813339
-1.7527961 -0.047904097 3.5845003
-1.7226948 -0.050051939 3.5876667
-1.687415 -0.037352264 3.5845003
-2.5353553 -0.012030101 3.5845003
-0.85214138 0.047006503 3.5845003
-0.82904416 0.034453258 3.5940001
-1.0013688 0.067929655 3.5750003
-0.98131251 0.076750033 3.5940001
-0.90517831 0.068290681 3.5940001
-2.5384941 -1.4705861 3.6130002
-2.5569198 -1.4507432 3.6130002
-2.5427463 -1.45783 3.6130002
-1.8198999 -1.462082 3.6130002
-1.8284039 -1.4365698 3.6130002
1.8240967 -1.4153097 3.6130002
1.8453571 -1.425231 3.6130002
1.8793732 -1.4167271 3.6130002
2.3981218 -1.4365698 3.6130002
-2.3896728 -1.3855454 3.6130002
1.8240967 -1.3983015 3.6130002
1.841105 -1.3855454 3.6130002
1.8827749 -1.3906478 3.6130002
2.406626 -1.3855454 3.6130002
-2.5512502 -1.3685372 3.6130002
-2.5384941 -1.360033 3.6130002
-2.504478 -1.351529 3.6130002
-2.4832177 -1.351529 3.6130002
-2.4364452 -1.351529 3.6130002
-2.4123504 -1.3571984 3.6130002
-2.3877106 -1.3619956 3.6129999
-2.3599086 -1.351529 3.6130002
-1.8284039 -1.3770412 3.6130002
1.8538611 -1.3770412 3.6130002
1.8708693 -1.3770412 3.6130002
2.066463 -1.351529 3.6130002
2.0817704 -1.3549306 3.6130002
2.4193821 -1.3642851 3.6130002
-2.4725876 -1.3408989 3.6130002
-2.4449494 -1.3345209 3.6129999
-2.415185 -1.3345209 3.6130002
-2.385421 -1.3345209 3.6129999
-2.3556566 -1.3345209 3.6130002
-2.3358138 -1.3288516 3.6130002
-1.8198999 -1.3387729 3.6130002
2.0324469 -1.3260168 3.6130002
2.0579588 -1.3401903 3.6130002
2.0919752 -1.3387729 3.6130002
2.4491463 -1.3387729 3.6130002
2.4746587 -1.3260168 3.6130002
-2.4420056 -1.3057379 3.6129999
-2.4151852 -1.3047565 3.6129999
-2.3854208 -1.3047565 3.6129997
-2.3556564 -1.3047565 3.6129999
-2.3267429 -1.3039061 3.6129997
-2.3046322 -1.2962525 3.6130002
1.8155928 -1.2962525 3.6130002
1.841105 -1.3005046 3.6130002
1.8623651 -1.2920004 3.6130002
2.0919752 -1.3175128 3.6130002
2.1047313 -1.3005044 3.6130002
2.4797614 -1.3090086 3.6130002
2.4916668 -1.2962525 3.6130002
-2.4382675 -1.2737776 3.6130004
-2.415185 -1.2749923 3.6130002
-2.3854208 -1.2749923 3.6129999
-2.3556566 -1.2749923 3.6130002
-2.3258924 -1.2749925 3.6129999
-2.2971909 -1.2739294 3.6130004
-2.27912 -1.2707403 3.6130002
-1.8113956 -1.2664883 3.6130002
1.7858285 -1.2834965 3.6130002
1.8793733 -1.2749923 3.6130002
1.9814222 -1.2664883 3.6130002
2.1174874 -1.2749923 3.6130002
2.5022969 -1.2749923 3.6130002
-2.500226 -1.2324719 3.6130002
-2.4734988 -1.240976 3.6130004
-2.4440992 -1.2443777 3.6129997
-2.4159582 -1.2463877 3.6129999
-2.3871217 -1.2511809 3.6130002
-2.3545938 -1.2505431 3.6130004
-2.3246777 -1.2470503 3.6129997
-2.2973428 -1.2519099 3.6130004
-1.8113956 -1.2452281 3.6130002
1.6497633 -1.2579842 3.6130002
1.6710234 -1.2579842 3.6130002
1.6880317 -1.2579842 3.6130002
1.8836253 -1.2452281 3.6130002
1.9474059 -1.2324719 3.6130002
1.9644141 -1.2494801 3.6130002
2.1259916 -1.2367239 3.6130002
2.517179 -1.240976 3.6130002
-2.5285728 -1.2097944 3.6130002
-2.5104308 -1.2205662 3.6130002
-2.435595 -1.2171646 3.6130002
-2.4215631 -1.2175899 3.6130002
-2.3131363 -1.2197158 3.6130002
-2.3046322 -1.2112117 3.6130002
-1.8113956 -1.2239679 3.6130002
1.8708692 -1.2133378 3.6130002
1.9346499 -1.2112117 3.6130002
2.1259916 -1.2154638 3.6130002
2.5001709 -1.2126292 3.6130002
-2.5597546 -1.1899515 3.6130002
-2.5427463 -1.1984556 3.6130002
-2.4321933 -1.1856995 3.6130002
-2.4236891 -1.1856995 3.6130002
-2.3046322 -1.1856996 3.6130002
1.8496091 -1.1856995 3.6130002
1.8623651 -1.1984556 3.6130002
1.9389019 -1.1899515 3.6130002
1.95591 -1.1729435 3.6130002
2.1259916 -1.1771955 3.6130002
2.1344957 -1.1729435 3.6130002
2.4193821 -1.1771955 3.6130002
2.4448943 -1.1856995 3.6130002
2.4746587 -1.1942036 3.6130002
-2.435595 -1.1542344 3.6130002
-2.3131363 -1.1516832 3.6130002
-2.3046322 -1.1601872 3.6130002
1.8538611 -1.1644393 3.6130002
1.8708693 -1.1559353 3.6130002
1.9686661 -1.1601872 3.6130002
1.9941783 -1.1474311 3.6130002
2.0324469 -1.1474311 3.6130002
2.062211 -1.1559353 3.6130002
2.0919752 -1.1644393 3.6130002
2.1132355 -1.1644393 3.6130002
2.1344957 -1.1644393 3.6130002
2.3896179 -1.1502658 3.6130002
2.406626 -1.1644393 3.6130002
-2.4406974 -1.126171 3.6130002
-2.3173883 -1.126171 3.6130002
-1.8113956 -1.1304231 3.6130002
1.9389019 -1.117667 3.6130002
2.1259916 -1.1134149 3.6130002
2.1429996 -1.1247538 3.6130002
2.1741812 -1.1304231 3.6130002
2.2067802 -1.1261711 3.6130002
2.2365446 -1.121919 3.6130002
2.2620568 -1.121919 3.6130002
2.3258374 -1.1304231 3.6130002
2.3598537 -1.1389271 3.6130002
-2.4385715 -1.0942807 3.6130002
-2.3216403 -1.0964068 3.6130002
1.960162 -1.1006587 3.6130002
2.1174874 -1.0964067 3.6130002
-2.5512502 -1.0708945 3.6130002
-2.5342422 -1.0708945 3.6130002
-2.4981 -1.0602643 3.6130002
-2.4768395 -1.0560123 3.6130002
-2.4321933 -1.0666425 3.6130002
-2.4215631 -1.0602643 3.6130002
-2.3258924 -1.0666425 3.6130002
-1.8113956 -1.0793986 3.6130002
1.9814222 -1.0623904 3.6130002
2.0239427 -1.0538863 3.6130002
2.0494549 -1.0538863 3.6130002
2.0834711 -1.0567211 3.6130002
2.1004794 -1.0708945 3.6130002
-2.4725876 -1.0432563 3.6130002
-2.4449496 -1.0351775 3.6130002
-2.4176147 -1.0356634 3.6130004
-2.3386486 -1.0368782 3.6130002
-2.4420056 -1.0080951 3.6129999
-2.4151852 -1.0071139 3.6129999
-2.393925 -1.002862 3.6130002
-2.3471525 -1.002862 3.6130002
-1.8751762 -1.002862 3.6130002
-2.5555024 -0.97734964 3.6130002
-2.5427463 -0.97734964 3.6130002
-2.504478 -0.97734964 3.6130002
-2.4730127 -0.98075122 3.6130002
-2.4463668 -0.98018432 3.6130002
-2.4151852 -0.97309756 3.6129999
-2.3913739 -0.97139674 3.6130002
-2.3471525 -0.97309756 3.6130002
-1.8879324 -0.96884555 3.6130002
-2.415185 -0.94333339 3.6130002
-2.393925 -0.94333339 3.6130002
-2.3471525 -0.94333339 3.6130002
-2.3358138 -0.93766397 3.6130002
-1.8879324 -0.94333333 3.6130002
-2.4168859 -0.91526985 3.6130002
-2.3981771 -0.9263252 3.6130002
-2.3230577 -0.92349052 3.6130002
-2.2989628 -0.9064824 3.6130002
-1.8879325 -0.91356909 3.6130002
1.5732266 -0.9064824 3.6130002
1.5902348 -0.90081298 3.6130002
-2.4321933 -0.87955278 3.6130002
-2.4236891 -0.89230889 3.6130002
-2.2897499 -0.88593084 3.6130002
-2.27912 -0.8838048 3.6130002
-1.8985624 -0.88167882 3.6130002
1.5902348 -0.8838048 3.6130002
-2.4321933 -0.85829258 3.6130002
-2.4236891 -0.84978855 3.6130002
-2.2876239 -0.85404056 3.6130002
-2.27912 -0.85404056 3.6130002
-1.9049405 -0.85404056 3.6130002
1.5902348 -0.86254466 3.6130002
-2.410933 -0.82852834 3.6130002
-2.3981771 -0.81577224 3.6130002
-2.2723165 -0.82257545 3.6130002
-1.9049405 -0.82427627 3.6130002
-2.3854208 -0.80301613 3.6130002
-2.3556566 -0.78459066 3.6130002
-2.3386486 -0.78175592 3.6130002
-2.2570093 -0.80046493 3.6130002
-2.2348988 -0.78685844 3.6130002
-2.2110872 -0.78175592 3.6130002
-1.9049405 -0.79451203 3.6130002
-2.3173883 -0.77325183 3.6130002
-2.296128 -0.76899981 3.6130002
-2.2564423 -0.761913 3.6130002
-2.2451036 -0.75624365 3.6130002
-2.1983314 -0.77325183 3.6130002
-2.1714017 -0.76616502 3.6130002
-2.1430547 -0.75624365 3.6130002
-1.9347049 -0.75836968 3.6130002
-1.9091926 -0.77325183 3.6130002
-2.2323475 -0.7434876 3.6130002
-2.2153394 -0.72647941 3.6130002
-2.1388025 -0.74773961 3.6130002
-2.1124399 -0.74433792 3.6130002
-2.0852268 -0.73413312 3.6130002
-2.0636833 -0.72506207 3.6130002
-1.9610674 -0.74093634 3.6130002
-1.947461 -0.74773961 3.6130002
-2.2054179 -0.70521921 3.6130002
-2.0452578 -0.70947123 3.6130002
-2.0325017 -0.69671518 3.6130002
-1.9814774 -0.69671518 3.6130002
-1.9729732 -0.70521921 3.6130002
-2.1940792 -0.68395901 3.6130002
-2.0154936 -0.68821108 3.6130002
-1.997068 -0.68537641 3.6130002
-2.185575 -0.64569068 3.6130002
-2.1770711 -0.61167437 3.6130002
-2.1685669 -0.57765806 3.6130002
-2.1643147 -0.56490195 3.6130002
-2.1515589 -0.53513771 3.6130002
-2.1402199 -0.49828672 3.6130002
-2.1175425 -0.458601 3.6130002
-2.1047864 -0.43308878 3.6130002
-2.0920303 -0.39056841 3.6130002
-2.0750222 -0.36505619 3.6130002
-2.0154936 -0.27151135 3.6130002
-1.9984852 -0.22048688 3.6130002
-1.9984852 -0.19497466 3.6130002
-1.9942334 -0.1652104 3.6130002
-1.9814774 -0.13544612 3.6130002
-1.9729731 -0.12694205 3.6130002
-1.960217 -0.11418594 3.6130002
-1.947461 -0.10142982 3.6130002
-2.5257382 -0.075917594 3.6130002
-1.9219488 -0.075917594 3.6130002
-1.9134448 -0.067413516 3.6130002
-1.8751764 -0.046153322 3.6130002
-1.8539162 -0.041901287 3.6130002
-1.8156478 -0.041901287 3.6130002
-1.7773795 -0.050405361 3.6130002
-1.7178509 -0.050405361 3.6130002
-1.7008427 -0.046153322 3.6130002
-1.0460289 0.051643554 3.6130002
-0.89295554 0.060147624 3.6130002
-2.5873854 -1.4864601 3.6520002
-2.5682232 -1.4730259 3.6330001
-1.8395445 -1.4606725 3.6520002
-1.8299741 -1.4616243 3.6330001
1.4096953 -1.4563746 3.6520002
1.4231336 -1.4482068 3.6351111
1.453668 -1.4487976 3.6330001
1.4855368 -1.4506974 3.6377499
1.5135261 -1.4487976 3.6330001
1.5435581 -1.4486266 3.6433637
1.5712976 -1.4537958 3.652
1.8442119 -1.4473356 3.6444001
1.8732957 -1.4482994 3.6425002
1.9039578 -1.4434808 3.6520002
2.0285981 -1.4520766 3.6520002
2.048655 -1.4492115 3.6520002
-1.8385252 -1.4231441 3.6330001
1.4275807 -1.4269814 3.6403079
1.4529303 -1.4227248 3.6344614
1.4835968 -1.4231441 3.6329997
1.51024 -1.4240661 3.6353748
1.5400661 -1.4320196 3.6520002
1.8229874 -1.4244919 3.6411431
1.8427453 -1.4359709 3.6330001
1.87695 -1.4359709 3.6330001
1.9099661 -1.4201127 3.6361666
1.9321221 -1.423823 3.6456668
1.9512353 -1.4262891 3.6520002
2.411397 -1.4231441 3.6330001
-1.8388649 -1.3927637 3.6393335
1.426887 -1.4090973 3.6520002
1.4571759 -1.3958701 3.6479285
1.4819152 -1.3956438 3.639333
1.5128456 -1.3962034 3.6520002
1.8478999 -1.3949965 3.6488333
1.8652765 -1.3833097 3.6520002
1.9082974 -1.3917999 3.6357141
1.9340434 -1.4026504 3.6520002
2.0944998 -1.386175 3.6520002
2.1145568 -1.3890401 3.6520002
2.4184511 -1.3956438 3.6393335
-2.5686605 -1.3644869 3.6411431
-2.5362992 -1.3538797 3.6330001
-2.5097904 -1.3504593 3.6330001
-1.8395445 -1.3747138 3.6520002
-1.8299741 -1.3590105 3.6330001
1.4655683 -1.3747138 3.6520002
1.4831899 -1.3754133 3.6424999
1.5085478 -1.3747138 3.6520002
1.8766878 -1.3732635 3.6384284
1.8953621 -1.3747138 3.6520002
2.069351 -1.363286 3.6330001
2.0814946 -1.3670654 3.6393335
2.108686 -1.3641411 3.6330001
2.1317484 -1.366118 3.6520002
2.4242234 -1.3718371 3.6330001
2.4429696 -1.3581264 3.6444001
-2.5530019 -1.3489262 3.6520002
-2.533006 -1.3334061 3.644875
-2.5055151 -1.3333571 3.6329999
-2.4849923 -1.3316467 3.6330001
2.0308707 -1.3290814 3.6330001
2.0533171 -1.3454173 3.6425002
2.1121066 -1.333357 3.6330001
2.1317484 -1.3360324 3.6520002
2.4562721 -1.3454173 3.6425002
2.4750955 -1.3322752 3.6456668
-2.5293632 -1.3059468 3.6520002
-2.5061531 -1.3059759 3.6401248
-2.4785459 -1.3024415 3.6329997
-1.8309485 -1.3102448 3.6520002
-1.8214227 -1.2906014 3.6330001
1.7875383 -1.2939762 3.6425002
1.8162417 -1.3065324 3.6456668
1.830893 -1.3145428 3.6520002
1.8793985 -1.303 3.6377501
1.8953621 -1.3102448 3.6520002
2.0052171 -1.2948768 3.6330001
2.0190229 -1.3153987 3.6425002
2.1249332 -1.2991525 3.6330001
2.1403444 -1.3059468 3.6520002
2.4841144 -1.3052177 3.6393335
2.4955308 -1.2957015 3.6393335
-2.5530019 -1.2629673 3.6520002
-2.5347357 -1.2737122 3.6520002
-2.5034232 -1.2746165 3.6361668
-2.4781513 -1.2743541 3.6329999
-1.8214227 -1.2820501 3.6330001
1.6374906 -1.2682555 3.6425002
1.6646528 -1.2700182 3.6393335
1.693359 -1.2801592 3.6520002
1.7223225 -1.2761631 3.6406002
1.7560142 -1.2814347 3.6393335
1.7700605 -1.2820501 3.6330001
1.9100717 -1.2741961 3.6472502
1.9770228 -1.2629673 3.6520002
1.9942145 -1.2801591 3.6520002
2.1433501 -1.2725534 3.6425002
2.5098741 -1.2766355 3.6444001
2.5248604 -1.2639575 3.6425002
-2.5598786 -1.2440565 3.652
-2.5344777 -1.2430637 3.6377501
-2.507225 -1.2529762 3.6330001
-2.4114521 -1.2350187 3.6330001
-2.3857989 -1.2392944 3.6329999
-2.3558698 -1.2350187 3.6329999
-2.3344917 -1.2307433 3.6330001
1.9092444 -1.2436079 3.6456668
1.9392406 -1.2378922 3.6456668
1.9569658 -1.2457757 3.6520002
2.150944 -1.2464508 3.6456668
2.5162868 -1.2339616 3.6425002
2.5244007 -1.2487367 3.6406002
-2.5873854 -1.2199881 3.6520002
-2.5663371 -1.2132089 3.6368001
-2.5482707 -1.222192 3.6330001
-2.4326596 -1.2027963 3.6520002
-2.4163055 -1.2139443 3.6425002
-2.3886058 -1.2232115 3.6520002
-2.3524315 -1.2185555 3.6520002
-2.3287914 -1.2136409 3.6330001
-1.8309485 -1.2199881 3.6520002
-1.8214227 -1.222192 3.6330001
1.8855011 -1.2136409 3.6330001
1.9053904 -1.2171228 3.6520002
1.9319814 -1.2151908 3.6440833
2.1463113 -1.2136409 3.6330001
2.166132 -1.2113923 3.6520002
2.4240081 -1.2027963 3.6520002
2.4454978 -1.2092432 3.6520002
2.476398 -1.2076107 3.6406002
2.5034153 -1.2210975 3.6425002
-2.4337711 -1.1819247 3.6472502
-2.4194949 -1.1850222 3.6461539
-2.3467009 -1.1856046 3.6520002
-2.3259408 -1.1837119 3.6330001
1.8555721 -1.1794363 3.6330001
1.8730885 -1.1857754 3.6393335
1.8910642 -1.1770087 3.6520002
1.9453592 -1.1922631 3.6330001
1.9608834 -1.181427 3.6444001
2.1505868 -1.183712 3.6330001
2.1771836 -1.1868325 3.6520002
2.1983664 -1.1791576 3.6520002
2.3982205 -1.1813066 3.6520002
2.4159164 -1.1841478 3.6409168
2.4456015 -1.1965387 3.6330001
-2.4364219 -1.1551474 3.6411431
-2.4180856 -1.1551718 3.6482003
-2.3853822 -1.151221 3.6520002
-2.3552969 -1.1536771 3.6520002
-2.3344917 -1.1452317 3.6330001
-1.8309485 -1.159817 3.6520002
-1.8214227 -1.1452317 3.6330001
1.8897767 -1.1623341 3.6330001
1.9075674 -1.1610979 3.6425002
1.9239813 -1.1452317 3.6330001
1.9678488 -1.1577907 3.6456668
1.9933026 -1.1567999 3.6425002
2.0285981 -1.1512212 3.6520002
2.0522485 -1.1537828 3.6330001
2.0790153 -1.1610756 3.6425002
2.1182199 -1.1668932 3.6472502
2.1500149 -1.1587427 3.6520002
2.1744964 -1.1560762 3.6450911
2.2039309 -1.1580203 3.6463001
2.231992 -1.1540217 3.6472502
2.2563887 -1.1469232 3.6520002
2.3251557 -1.1426252 3.6520002
2.3533788 -1.1482265 3.6425002
2.3897824 -1.1608328 3.6444001
2.4028459 -1.1623341 3.6330001
-2.4413812 -1.1238538 3.6329999
-2.4166493 -1.123315 3.638588
-2.3853822 -1.1254334 3.6520002
-2.3595948 -1.1254334 3.6520002
-2.3344917 -1.1366806 3.6330001
-1.8176122 -1.1182302 3.6425002
1.9410837 -1.132405 3.6330001
1.9770228 -1.1254334 3.6520002
1.9856187 -1.1168376 3.6520002
2.1292088 -1.1153026 3.6330001
2.1422052 -1.1304715 3.6406002
2.2318227 -1.1366806 3.6330001
2.3258855 -1.1366806 3.6330001
-2.4392436 -1.0960625 3.6330001
-2.4142992 -1.094641 3.6389375
-2.3830678 -1.0976621 3.6520002
-2.3567078 -1.0955616 3.6465716
-1.8309485 -1.0824541 3.6520002
-1.8176122 -1.1010609 3.6425002
1.9838394 -1.0939248 3.6330001
2.0157042 -1.0824541 3.6520002
2.1129084 -1.0872508 3.6393335
2.1317484 -1.1082418 3.6520002
-2.5711262 -1.0724616 3.6472502
-2.533478 -1.0646179 3.6425002
-2.5097904 -1.0554446 3.6330001
-2.4126561 -1.0652254 3.6363528
-2.3810844 -1.0652623 3.6520002
-2.349884 -1.0648508 3.6330001
-1.8481404 -1.0652623 3.6520002
2.0009415 -1.0711218 3.6330001
2.0265951 -1.0682714 3.6330001
2.0586836 -1.0738583 3.6520002
2.0851319 -1.0705708 3.6456668
2.1035557 -1.0768225 3.6330001
-2.5104358 -1.0329125 3.6501002
-2.4841371 -1.0340668 3.6330001
-2.408534 -1.0371737 3.6372223
-2.3916676 -1.0358615 3.6502726
-2.3622832 -1.0319289 3.6330001
-1.8736285 -1.033836 3.6472502
-2.5658956 -0.99649543 3.6520002
-2.5314124 -0.99763256 3.6456668
-2.5105464 -1.0016414 3.6438575
-2.4787924 -1.0073445 3.6329999
-2.3891449 -1.0026271 3.6368001
-2.3686965 -1.0041378 3.6330001
-1.8911197 -1.0050913 3.6520002
-1.8855565 -0.99986219 3.6330001
-2.5439951 -0.98275977 3.6330001
-2.3833559 -0.97543031 3.6329999
-2.3686965 -0.97420865 3.6330001
-1.8911197 -0.96211195 3.6520002
-1.8898319 -0.97420865 3.6330001
-2.4029009 -0.93145293 3.6330001
-2.3857987 -0.94427961 3.6329997
-2.366986 -0.94171441 3.6330001
-1.8911196 -0.94492012 3.6520002
-1.8898319 -0.94427967 3.6330001
-2.4117701 -0.91018867 3.6381814
-2.3861468 -0.9111644 3.6431334
-2.3553681 -0.91316676 3.6388459
-2.3302164 -0.91007507 3.6330001
-1.8968502 -0.9134019 3.6520002
-1.8898319 -0.91862619 3.6330001
1.5819353 -0.90579945 3.6330001
-2.4364758 -0.88194841 3.644875
-2.4205859 -0.89387137 3.6425002
-2.3868151 -0.89334494 3.6520002
-2.3524315 -0.88761431 3.6520002
-2.3247066 -0.88556677 3.6377499
-2.3088384 -0.88014603 3.6330001
-1.9016852 -0.88453072 3.6393335
1.581774 -0.89529663 3.6425002
1.5920944 -0.88711798 3.6406002
-2.4352679 -0.86149704 3.6482003
-2.420435 -0.85032314 3.6465716
-2.3323746 -0.85323089 3.652
-2.3088384 -0.8544926 3.6330001
-1.9077214 -0.8545903 3.6438575
1.5988044 -0.86755729 3.6520002
-2.408922 -0.83007127 3.6384284
-2.396313 -0.81385946 3.6425002
-2.3243518 -0.82629716 3.652
-2.2954009 -0.82028806 3.6329999
-1.9075247 -0.8245697 3.6411431
-2.3822632 -0.8063361 3.6472502
-2.3562958 -0.79528731 3.6425002
-2.323281 -0.79411864 3.6463001
-2.2892931 -0.79585612 3.6329999
-2.2682204 -0.78822118 3.6330001
-1.9069344 -0.79463452 3.6330001
-2.2960117 -0.77753222 3.6330001
-2.2639449 -0.77539444 3.6330001
-2.2376721 -0.76609159 3.6408236
-2.2065651 -0.76234072 3.6463001
-2.17202 -0.75472909 3.6330001
-1.9342234 -0.75870335 3.640125
-1.9131089 -0.77317196 3.6393335
-2.2285755 -0.74223071 3.6444001
-2.2097278 -0.73737991 3.6501
-2.1747835 -0.74291712 3.6520002
-2.1455512 -0.73584521 3.647778
-2.1158257 -0.73072571 3.644875
-2.0909178 -0.72302675 3.6456668
-1.9637282 -0.73362404 3.6414442
-1.94969 -0.74332762 3.6330001
-2.2062533 -0.7062214 3.640125
-2.0845268 -0.70853364 3.6520002
-2.0599451 -0.7035321 3.6357143
-2.0352015 -0.69202071 3.6330001
-1.9838946 -0.69202071 3.6330001
-1.9726082 -0.70545352 3.6405997
-2.1997433 -0.67130619 3.6465716
-2.0501432 -0.68274605 3.6520002
-2.0268278 -0.67496437 3.644875
-1.9948258 -0.67651057 3.6416361
-1.9744956 -0.68400139 3.6472502
-2.1919751 -0.64406466 3.6520002
-2.1891224 -0.64071375 3.6330001
-2.1919751 -0.61827701 3.6520002
-2.1862509 -0.62524223 3.6425002
-2.1791353 -0.58589077 3.6377501
-2.1698058 -0.55309331 3.6472502
-2.1661878 -0.53231829 3.6520002
-2.1549177 -0.5209977 3.6330001
-2.1509848 -0.49707127 3.6456668
-2.1391077 -0.47519457 3.6425002
-2.1207132 -0.45258847 3.6330001
-2.1121619 -0.43548617 3.6330001
-2.1091115 -0.40662885 3.6425002
-2.0919423 -0.37229007 3.6425002
-2.0694063 -0.34142354 3.6330001
-2.0533724 -0.31229782 3.6425002
-2.0362256 -0.28657731 3.6425002
-2.0190785 -0.26085675 3.6425002
-2.0095482 -0.24736086 3.6330001
-2.0095482 -0.2388097 3.6330001
-2.53581 -0.17129166 3.6520002
-2.011462 -0.1626958 3.6520002
-2.002866 -0.14550404 3.6520002
-2.5397196 -0.084888987 3.6330001
-1.9255031 -0.0681412 3.6520002
-2.5482707 -0.042133231 3.6330001
-1.9021219 -0.056576774 3.6456668
-1.8898319 -0.050684385 3.6330001
-1.8430443 -0.044337288 3.6377501
-1.8133366 -0.05081692 3.6425002
-1.7834723 -0.057330094 3.6472502
-1.7505298 -0.059442062 3.6456668
-1.7190861 -0.05372639 3.6456668
-1.6961936 -0.036564458 3.6456668
-1.0689216 0.039102703 3.6330001
-0.88079619 0.051929429 3.6330001
-0.85101914 0.035009269 3.6520002
-1.034717 0.060480576 3.6330001
-1.0143408 0.069392756 3.6520002
-0.98855317 0.077988625 3.6520002
-0.9321031 0.077582881 3.6330001
-1.8409756 -1.4859577 3.6720002
-1.8496187 -1.4557074 3.6720002
1.4087723 -1.4643503 3.6720002
1.4174154 -1.4470644 3.6720002
1.5787505 -1.4456239 3.6720002
1.601078 -1.4611092 3.6720004
1.633489 -1.4686718 3.6720002
1.8236339 -1.4427429 3.6720002
1.8365984 -1.4557074 3.6720002
1.9057419 -1.4600289 3.6720002
1.9359922 -1.451386 3.6720002
1.9619211 -1.4427429 3.6720002
2.0258789 -1.4548432 3.6720002
2.0569935 -1.451386 3.6720002
2.0742793 -1.4600289 3.6720002
2.4286401 -1.4557074 3.6720002
1.4231774 -1.425457 3.6720002
1.4433442 -1.4168142 3.6720002
1.5470595 -1.4240166 3.6720002
1.5686669 -1.4341 3.6720002
1.7302901 -1.4202714 3.6720002
1.7516093 -1.4225761 3.6720002
1.8236338 -1.425457 3.6720002
1.8322768 -1.4168142 3.6720002
1.967683 -1.4283381 3.6720002
-1.8496187 -1.4038496 3.6720002
1.4347013 -1.3995281 3.6720002
1.4487461 -1.3919655 3.6720004
1.5297737 -1.3822423 3.6720002
1.5384165 -1.3995281 3.6720002
1.8495626 -1.4024092 3.6720002
1.8711702 -1.3822423 3.6720002
1.9187063 -1.3822423 3.6720002
1.9359922 -1.3937663 3.6720002
1.9532781 -1.4081712 3.6720002
2.0872438 -1.3865638 3.6720002
2.1002083 -1.3995281 3.6720002
2.1455836 -1.3908852 3.6720002
2.4401641 -1.3908852 3.6720002
-2.595793 -1.3620754 3.6720002
-2.5756261 -1.3563135 3.6720002
1.8841344 -1.3735994 3.6720002
1.9057419 -1.3735994 3.6720002
2.0771604 -1.3707185 3.6720002
2.1520658 -1.3649564 3.6720002
2.4502475 -1.3649564 3.6720002
2.463212 -1.3563135 3.6720002
-2.592912 -1.3347062 3.6720006
-2.5687118 -1.3329774 3.6720004
-2.5496974 -1.3217417 3.6720002
-1.8409756 -1.3390275 3.6720002
1.8466816 -1.3275037 3.6720002
1.8754915 -1.3303846 3.6720002
1.8927773 -1.3303846 3.6720002
2.0397077 -1.3390276 3.6720002
2.0483506 -1.3476706 3.6720002
2.1520658 -1.3332657 3.6720002
2.4772568 -1.331465 3.6720004
-2.5929122 -1.3096416 3.6720002
-2.5669832 -1.3044559 3.6720004
-2.5496974 -1.3001344 3.6720002
1.7285614 -1.2958128 3.6720002
1.7544903 -1.2958128 3.6720002
1.789062 -1.3044559 3.6720002
1.9187063 -1.3044559 3.6720002
2.0224216 -1.3130988 3.6720002
2.1607089 -1.3001344 3.6720002
2.4833786 -1.3073369 3.6720002
2.5021052 -1.2958128 3.6720002
-2.5877261 -1.2681555 3.6720002
-2.5706875 -1.278527 3.6720004
1.6637394 -1.2828485 3.6720002
1.9359922 -1.2720448 3.6720002
1.9662426 -1.2634017 3.6720002
2.1693518 -1.2655625 3.6720002
2.5093076 -1.281408 3.6720002
2.5258734 -1.2677232 3.6720002
-2.5929122 -1.243955 3.6720002
1.9359922 -1.252598 3.6720002
1.9532781 -1.252598 3.6720002
2.1801555 -1.2417943 3.6720002
2.4761763 -1.2353122 3.6720002
2.5064268 -1.237473 3.6720002
2.5265937 -1.2497171 3.6720002
-2.4062245 -1.2076548 3.6720002
-2.3846958 -1.2125262 3.6720006
-2.3681955 -1.2093834 3.6720002
-1.8409756 -1.2180263 3.6720002
1.9122241 -1.2137048 3.6720002
1.9338315 -1.2115442 3.6720002
1.9532781 -1.2007405 3.6720002
2.1866376 -1.2180263 3.6720002
2.2021949 -1.2076548 3.6720002
2.3940685 -1.2007405 3.6720002
2.4156756 -1.2093834 3.6720004
2.445926 -1.2209072 3.6720002
2.4761765 -1.2266693 3.6720002
2.4977837 -1.2266693 3.6720002
-2.4070888 -1.1834546 3.6720002
-2.3854816 -1.1834545 3.6720004
-2.3681955 -1.1834546 3.6720002
-1.8409756 -1.1791331 3.6720002
1.9100634 -1.1834545 3.6720002
1.9662426 -1.1856153 3.6720002
2.2125664 -1.1920975 3.6720002
2.2335565 -1.1822197 3.6720004
2.2601027 -1.1748116 3.6720002
2.3940685 -1.1834546 3.6720002
2.4027114 -1.1834546 3.6720002
-2.3768384 -1.1661687 3.6720002
-1.8323327 -1.1402398 3.6720002
1.9359922 -1.1661687 3.6720002
1.9648021 -1.1517638 3.6720002
1.9964929 -1.1661687 3.6720002
2.0181003 -1.1575258 3.6720002
2.0569932 -1.1575258 3.6720002
2.0915654 -1.1661687 3.6720002
2.1002083 -1.1661687 3.6720002
2.1477444 -1.1560854 3.6720002
2.2644241 -1.1632878 3.6720002
2.2903528 -1.1488827 3.6720002
2.3249249 -1.1488827 3.6720002
2.3594966 -1.1618472 3.6720002
2.381104 -1.1661687 3.6720002
2.0051358 -1.114311 3.6720002
2.1434228 -1.1315969 3.6720002
-2.4085293 -1.0912632 3.6720002
-1.8323327 -1.097025 3.6720002
2.0253026 -1.094144 3.6720002
2.0569935 -1.0883821 3.6720002
2.0829222 -1.0883821 3.6720002
2.1117322 -1.0912632 3.6720002
2.1347799 -1.1056679 3.6720002
-2.5612211 -1.0682153 3.6720002
-2.5468163 -1.0566913 3.6720002
-2.4092495 -1.073257 3.6720002
-2.5410545 -1.0365244 3.6720002
-1.8841904 -1.0365244 3.6720002
-2.5929122 -1.0019526 3.6720002
-2.5756261 -1.0019526 3.6720002
-2.5468163 -1.0163575 3.6720002
-1.9014763 -0.99763119 3.6720002
-1.9014763 -0.98034525 3.6720002
-1.9014763 -0.91552323 3.6720002
-2.4373391 -0.88527286 3.6720002
-2.4157317 -0.88095123 3.6720006
-2.3863459 -0.88267994 3.6720004
-2.3653145 -0.87518948 3.6720002
-1.9101192 -0.8809514 3.6720002
-2.4373391 -0.86366552 3.6720002
-2.4123707 -0.85694319 3.6720004
-2.3826005 -0.85790354 3.6720002
-2.363874 -0.85502261 3.6720002
-1.9101192 -0.86366552 3.6720002
-2.4062245 -0.83082229 3.6720002
-2.3854816 -0.8262127 3.6720004
-2.3570828 -0.82353747 3.6720006
-1.9187623 -0.81180781 3.6720002
-1.9187623 -0.79884338 3.6720002
-1.9533341 -0.75130719 3.6720002
-1.9360482 -0.75778943 3.6720002
-2.2050598 -0.73294091 3.6720004
-2.1766102 -0.72825933 3.6720002
-2.1434789 -0.72537833 3.6720002
-1.9634175 -0.73402125 3.6720002
-1.9446912 -0.74266422 3.6720002
-2.2049398 -0.70425117 3.6720004
-2.1089072 -0.70809251 3.6720004
-2.0847068 -0.69426382 3.6720002
-1.9706199 -0.70117813 3.6720002
-2.1987936 -0.67524928 3.6720002
-2.0808175 -0.68000293 3.6720002
-2.0592101 -0.67352068 3.6720002
-2.0311205 -0.66487777 3.6720002
-1.9943881 -0.66703856 3.6720002
-1.9706198 -0.67784214 3.6720002
-2.1953366 -0.64759183 3.6720002
-2.1866937 -0.63894886 3.6720002
-2.1953366 -0.61302 3.6720002
-2.1866937 -0.61302 3.6720002
-2.1953366 -0.59573412 3.6720002
-2.1866937 -0.58276975 3.6720002
-2.1780508 -0.5568409 3.6720002
-1.9907869 -0.54963845 3.6720002
-1.9758056 -0.55079085 3.6720002
-2.1694076 -0.52659059 3.6720002
-2.1607647 -0.50066173 3.6720002
-2.1521218 -0.48337582 3.6720002
-2.1434789 -0.46608993 3.6720002
-2.1348357 -0.44880405 3.6720002
-2.1261928 -0.42719668 3.6720002
-2.1175501 -0.39694634 3.6720002
-2.1089072 -0.37966046 3.6720002
-2.0829782 -0.33644572 3.6720002
-2.0570493 -0.30187395 3.6720002
-2.0397635 -0.27594513 3.6720002
-2.0311205 -0.26730216 3.6720002
-1.9533341 -0.085800268 3.6720002
-1.9446912 -0.077157319 3.6720002
-2.584269 -0.033942584 3.6720002
-1.9014763 -0.055549953 3.6720002
-1.8755474 -0.051228479 3.6720002
-1.8539401 -0.051228479 3.6720002
-1.806404 -0.059871428 3.6720002
-1.7257365 -0.056990445 3.6720002
-1.7026886 -0.042585529 3.6720002
-0.84703678 0.026558045 3.6720002
-0.87296557 0.04384394 3.6720002
-0.94210923 0.074094251 3.6720002
-0.91618037 0.061129831 3.6720002
-1.8610297 -1.4846704 3.7120001
-1.8510027 -1.4853611 3.6920002
1.4153814 -1.4803019 3.7120001
1.6684561 -1.4766711 3.6920002
1.6964505 -1.4763759 3.7000003
1.7260958 -1.4785349 3.7091429
1.7543808 -1.4794281 3.7120004
1.7779709 -1.4759333 3.7120001
2.0007668 -1.4759334 3.7120001
2.0182412 -1.4759333 3.7120001
2.4463589 -1.4759333 3.7120001
-1.8596929 -1.446256 3.6920002
1.4202821 -1.4501498 3.7020001
1.6054465 -1.4482028 3.6969998
1.6337413 -1.4581859 3.6992731
1.6645921 -1.4598889 3.7053339
1.6961467 -1.4529715 3.7091434
1.7242637 -1.4514793 3.698667
1.7541147 -1.4506012 3.6919999
1.7849269 -1.4534755 3.6992729
1.8202561 -1.4554461 3.708364
1.836038 -1.4656124 3.6970003
1.9378468 -1.467981 3.6920002
1.965655 -1.4645052 3.6920002
1.9973058 -1.4524441 3.6994998
2.0226002 -1.4570446 3.704
2.0518205 -1.4514724 3.7005713
2.0874128 -1.4512147 3.7062857
2.4433651 -1.4532361 3.6986668
-1.8596929 -1.4288759 3.6920002
1.4299616 -1.4223754 3.7
1.5554858 -1.415841 3.6920002
1.5752383 -1.4264308 3.7034285
1.7037055 -1.4322479 3.7120001
1.7240216 -1.4232774 3.7010911
1.7553563 -1.415841 3.6920002
1.7881918 -1.4242681 3.6970005
1.8168688 -1.4271579 3.7045
1.8432506 -1.4184818 3.7080002
1.972607 -1.420186 3.6920002
1.9910201 -1.4283776 3.7020001
2.096875 -1.4191421 3.7120001
2.1161945 -1.4171615 3.7000003
2.147876 -1.4196758 3.7020001
2.175509 -1.4235107 3.7120001
2.1929832 -1.4147736 3.7120001
2.4418681 -1.424531 3.6920002
-1.8610297 -1.3885623 3.7120001
1.4334376 -1.3997437 3.7000003
1.4425156 -1.3897709 3.6920002
1.5533133 -1.3962884 3.6920002
1.5726491 -1.4060365 3.7120001
1.7339585 -1.4065937 3.7020001
1.7557421 -1.4065937 3.7020004
1.7731694 -1.4065937 3.7020001
1.8542732 -1.4038826 3.6986668
1.8711851 -1.3924488 3.7019999
1.9404712 -1.3872962 3.697
1.9664249 -1.4032197 3.7
2.0905988 -1.396026 3.704
2.1029572 -1.4071509 3.6920002
2.1550972 -1.4071509 3.6920002
2.1707397 -1.396723 3.6920002
2.1929832 -1.3972994 3.7120001
2.4513786 -1.3949834 3.7019999
-1.8610297 -1.3798252 3.7120001
-1.8510027 -1.3637009 3.6920002
1.882192 -1.3623512 3.7120001
1.9025475 -1.365818 3.7036669
1.9235471 -1.3626115 3.7080002
2.0650618 -1.3630259 3.7020001
2.0756505 -1.3744346 3.7053335
2.181304 -1.364861 3.7070003
2.4288845 -1.353614 3.7120001
2.4543788 -1.3666741 3.7034285
2.4674954 -1.3615019 3.7062857
1.8140084 -1.3250185 3.7053335
1.845361 -1.3386968 3.707
1.8857067 -1.3463207 3.6920002
1.9117768 -1.3376307 3.6920002
1.9268312 -1.331356 3.6986668
2.0432897 -1.3368852 3.7020001
2.1732473 -1.3350972 3.6970003
2.4521837 -1.3390521 3.7120001
2.4705336 -1.3345089 3.7005723
-2.6157248 -1.2985256 3.6920002
-2.6035588 -1.3011328 3.6920002
-1.8473027 -1.3020545 3.7020001
1.6773202 -1.2976861 3.7020001
1.7006302 -1.3075758 3.7053335
1.7252684 -1.3107681 3.7020001
1.7529742 -1.3162974 3.7053335
1.7818712 -1.3151132 3.7020001
1.9483442 -1.3099284 3.7120001
1.9658184 -1.2953666 3.7120001
2.0196817 -1.3052076 3.6986668
2.1811674 -1.2941806 3.6920002
2.1973515 -1.3055599 3.7120001
2.4783773 -1.3059175 3.7029092
2.4976149 -1.2970996 3.7031109
-2.6157248 -1.2768006 3.6920002
-2.6070347 -1.2854906 3.6920002
-1.8448077 -1.2741612 3.6970003
1.9465369 -1.2768005 3.6920002
1.9595718 -1.2768005 3.6920002
1.9913331 -1.2843083 3.7053335
2.1869609 -1.2768006 3.6920002
2.2133694 -1.2691554 3.7120001
2.4754825 -1.2720677 3.7120001
2.5029719 -1.2751168 3.7045007
2.5245373 -1.2712132 3.6960003
-2.6157248 -1.2550755 3.6920002
-1.8522928 -1.2575059 3.7120001
2.2086856 -1.2420405 3.6920002
2.238416 -1.2470214 3.7120004
2.2653763 -1.2400316 3.7120001
2.2952073 -1.2382843 3.7120004
2.3240397 -1.2400317 3.7120001
2.3546193 -1.2400317 3.7120006
2.3856974 -1.2402602 3.7097778
2.4134355 -1.2456743 3.7027698
2.4462526 -1.2430984 3.6974549
2.4723709 -1.2500924 3.6986666
2.5001769 -1.2503476 3.6960003
2.5258715 -1.2565238 3.6920002
-1.8510027 -1.2116255 3.6920002
1.9358736 -1.2078941 3.6977143
2.2159274 -1.2246604 3.6920002
2.2343938 -1.2170568 3.6919999
2.2628658 -1.211275 3.6953335
2.2978282 -1.2160047 3.7120001
2.3240395 -1.2225575 3.7120001
2.3578956 -1.2170968 3.7120001
2.3860021 -1.21615 3.6966159
2.4100046 -1.2217637 3.6920002
-1.8516477 -1.1843626 3.7020001
1.9117768 -1.1985904 3.6920002
1.9378469 -1.1899004 3.6919999
1.9655268 -1.18624 3.6986668
1.9947954 -1.1750939 3.707
2.1173434 -1.1713276 3.7020001
2.1485751 -1.1750998 3.707
2.2655847 -1.1948661 3.6919999
2.3001332 -1.1865505 3.7086668
2.3205447 -1.182367 3.7120004
2.3590739 -1.1795332 3.7062857
2.3833246 -1.1890187 3.6946673
-1.8423127 -1.1551403 3.6920002
2.0016875 -1.1588855 3.704
2.0242479 -1.1554531 3.7070003
2.0519915 -1.158269 3.7020001
2.084033 -1.1632222 3.6970003
2.1570556 -1.1563996 3.7053335
2.2984827 -1.1638304 3.6920002
2.3202076 -1.1580371 3.6920002
2.3506227 -1.1638304 3.6920002
-1.8435558 -1.1264493 3.7120001
2.0073671 -1.1377603 3.6920002
2.0274889 -1.119725 3.6970003
2.0531895 -1.1206247 3.7120001
2.0706637 -1.1177123 3.7120001
2.1452472 -1.1250701 3.6960003
-1.8516477 -1.0929291 3.7020001
2.0551622 -1.1030002 3.6920002
2.0925064 -1.1089753 3.7120001
2.1180186 -1.1074815 3.707
2.1318233 -1.1089753 3.7120001
-2.6184411 -1.0754784 3.7020001
-2.5933807 -1.0700237 3.7019999
-2.5635846 -1.05086 3.6920002
-1.8770728 -1.0595502 3.6920002
-1.8596929 -1.07693 3.6920002
-2.6211574 -1.0216043 3.7120001
-2.5931983 -1.0355837 3.7120004
-2.5664814 -1.03348 3.6920002
-1.9012789 -1.037228 3.7053335
-2.5809648 -1.0160999 3.6920002
-2.5722744 -1.0160999 3.6920002
-1.9108752 -1.0071225 3.707
-1.9031429 -0.97264981 3.6920002
-1.9031429 -0.94657975 3.6920002
-1.9110667 -0.91652137 3.704
-1.9221895 -0.87744218 3.7120001
-1.9118329 -0.89009464 3.6920002
-2.4071641 -0.85533452 3.6920002
-2.3941293 -0.84664452 3.6920002
-1.9211895 -0.85458088 3.7
-1.9283257 -0.82389069 3.7070003
-1.9297842 -0.79160184 3.6986668
-1.9405332 -0.76248807 3.7053335
-2.1986036 -0.72063917 3.6920002
-2.1768787 -0.72063917 3.6920002
-2.1508083 -0.72063917 3.6920002
-1.9628768 -0.72914356 3.7008886
-1.9474969 -0.74000639 3.7020001
-2.2020795 -0.70499718 3.6920002
-2.1768782 -0.70325923 3.6920004
-2.1464634 -0.70325923 3.6920002
-2.1256077 -0.70152116 3.6920002
-1.981353 -0.71194917 3.6920002
-1.9627962 -0.70614952 3.6980004
-1.9477983 -0.69998986 3.7053335
-2.1986036 -0.67718911 3.6920002
-2.1768785 -0.67718905 3.6920004
-2.1464634 -0.67718911 3.6920002
-2.1161265 -0.67439657 3.6950772
-2.0858159 -0.66702741 3.7019999
-2.0651183 -0.66594118 3.7020001
-2.0248034 -0.66849905 3.6920002
-1.9856982 -0.66849905 3.6920002
-1.9614903 -0.67594767 3.6919999
-1.9431378 -0.6772806 3.7020001
-2.1986036 -0.65980905 3.6920002
-2.1776114 -0.64698851 3.6932507
-2.1433637 -0.64601177 3.6970005
-2.1208851 -0.65199947 3.7020001
-2.0707202 -0.65464616 3.7120001
-2.0524709 -0.65636712 3.7053335
-2.0239482 -0.65774393 3.7
-1.995766 -0.65199858 3.7053337
-1.9643546 -0.6502524 3.7036669
-1.9474969 -0.65722764 3.7020001
-2.1958773 -0.61499935 3.7062857
-2.1779568 -0.61840934 3.708667
-2.1441116 -0.61620295 3.7120008
-2.1202304 -0.61532927 3.7120001
-2.1944304 -0.58830678 3.707
-2.1862607 -0.58543193 3.7005713
-2.13188 -0.589118 3.7120001
-2.1231427 -0.5847494 3.7120001
-2.0270345 -0.58038086 3.7120001
-1.9939693 -0.58318985 3.7020004
-1.9736376 -0.57446057 3.7020001
-2.1829829 -0.55475217 3.7034285
-2.0260985 -0.55475211 3.7034285
-1.9956564 -0.55611181 3.6960003
-1.9736376 -0.55703348 3.7019999
-2.1764565 -0.52172476 3.6986668
-1.9971462 -0.53565371 3.7005713
-2.168746 -0.49648514 3.7053335
-2.1522655 -0.46552929 3.7020001
-2.1391952 -0.43502009 3.7020001
-2.1406169 -0.41874459 3.7120001
-2.1247387 -0.39910835 3.6920002
-2.1117034 -0.37303832 3.6920002
-2.1030135 -0.35565826 3.6920002
-2.0869138 -0.32611236 3.7020001
-2.0492823 -0.28215706 3.697
-2.0334933 -0.25137803 3.6920002
-2.0334933 -0.22530794 3.6920002
-2.0445089 -0.19594863 3.7120001
-2.0346327 -0.16489975 3.7020001
-2.0172052 -0.13441406 3.7020001
-2.0095606 -0.1216833 3.7120001
-1.9910883 -0.10829692 3.7020001
-1.972663 -0.094957612 3.6920002
-1.9571378 -0.077997811 3.7120001
-1.9332522 -0.066223957 3.7053335
-1.9134525 -0.060523622 3.7120001
-1.8610297 -0.060523622 3.7120001
-1.8429577 -0.060360573 3.7020001
-1.8249327 -0.060197525 3.6920002
-1.7296579 -0.060360573 3.7020001
-2.5896547 -0.051507499 3.6920002
-1.8857628 -0.051507499 3.6920002
-1.7122309 -0.051647007 3.7020001
-2.6298945 -0.016838135 3.7120001
-2.6070347 -0.025437435 3.6920002
-0.84296024 0.018012675 3.6920002
-1.0862808 0.03539272 3.6920002
-1.0602107 0.052772764 3.6920002
-0.90379035 0.052772764 3.6920002
-1.0428307 0.061462782 3.6920002
-0.99069059 0.078842826 3.6920002
-0.96984595 0.079269923 3.7120001
-1.8710569 -1.4838855 3.7320001
1.4171513 -1.4838856 3.7320001
1.8139031 -1.4838855 3.7320001
1.8402555 -1.4838855 3.7320001
2.1169569 -1.4794934 3.7320001
2.4507554 -1.4838855 3.7320001
1.4230074 -1.4663172 3.7320001
1.6162591 -1.4487488 3.7320001
1.6338276 -1.4487489 3.7320001
1.6645721 -1.4487488 3.7320001
1.6865326 -1.4487488 3.7320001
2.0335073 -1.4487488 3.7320001
2.0818202 -1.454605 3.7320001
2.1081727 -1.4487488 3.7320001
2.4595397 -1.457533 3.7320001
-1.8710569 -1.4180043 3.7320001
1.4317915 -1.4267884 3.7320001
1.5899067 -1.4223963 3.7320001
1.5986907 -1.4399647 3.7320001
1.7011728 -1.4370366 3.7320001
1.7216692 -1.4223963 3.7319999
1.7919426 -1.4136121 3.7320001
1.813903 -1.4158081 3.7320001
1.8424517 -1.4223963 3.7320001
1.9983706 -1.4180043 3.7320001
2.0159388 -1.4355726 3.7320001
2.0993886 -1.4267884 3.7320001
2.1169569 -1.4377686 3.7320001
2.1433096 -1.4399647 3.7320001
2.1784461 -1.4370366 3.7320001
2.2077267 -1.4297165 3.7320001
2.2252948 -1.4253244 3.7320001
2.4595397 -1.4267883 3.7320001
-1.8710569 -1.404828 3.7320001
1.4317915 -1.404828 3.7320001
1.5811224 -1.404828 3.7320001
1.7392375 -1.404828 3.7320001
1.7568059 -1.404828 3.7320001
1.7787664 -1.404828 3.7320001
1.8534318 -1.404828 3.7320001
1.8762707 -1.3942869 3.7319999
1.9588418 -1.3916516 3.7320001
1.9851943 -1.404828 3.7320001
2.0906043 -1.3960438 3.7320001
2.2091908 -1.3960438 3.7320001
2.4573436 -1.3938477 3.7320001
1.8841763 -1.3740833 3.7320001
1.9412735 -1.3740833 3.7320001
2.0642519 -1.3609072 3.7320001
2.2047987 -1.3784754 3.7320001
2.424403 -1.3652992 3.7320001
2.4473767 -1.3642857 3.7319996
2.4683237 -1.3609072 3.7320001
-1.8622727 -1.3301625 3.7320001
1.7260613 -1.3257705 3.7320001
1.761198 -1.3345546 3.7320001
1.7743742 -1.3345546 3.7320001
1.8095109 -1.3345546 3.7320001
