ply
format ascii 1.0
comment PCL generated
element vertex 1461
property float x
property float y
property float z
element camera 0
property float view_px
property float view_py
property float view_pz
property float x_axisx
property float x_axisy
property float x_axisz
property float y_axisx
property float y_axisy
property float y_axisz
property float z_axisx
property float z_axisy
property float z_axisz
property float focal
property float scalex
property float scaley
property float centerx
property float centery
property int viewportx
property int viewporty
property float k1
property float k2
end_header
2.5938599 -1.4509983 -0.63965595
2.6226063 -1.4574728 -0.63979286
2.6588323 -1.4526155 -0.63992423
2.6895089 -1.4547594 -0.63855153
2.7141469 -1.4540924 -0.63669515
2.7437732 -1.4546994 -0.63295382
2.3685336 -1.410373 -0.64538074
2.3884368 -1.4171697 -0.64434111
2.4163511 -1.4245846 -0.6428476
2.4461675 -1.4269459 -0.6428057
2.4758754 -1.4231721 -0.6462844
2.5069747 -1.4250934 -0.64764941
2.5354919 -1.4226227 -0.64742589
2.5677371 -1.4264675 -0.64526469
2.592154 -1.4246931 -0.64390749
2.6242445 -1.4267367 -0.64130968
2.6543243 -1.4232976 -0.63860548
2.6845958 -1.4255444 -0.63676226
2.713618 -1.4268383 -0.63565981
2.7396412 -1.4266462 -0.63225526
2.3312016 -1.3855584 -0.64850128
2.3576508 -1.395636 -0.64636743
2.3851714 -1.3967648 -0.64554268
2.4184248 -1.3975744 -0.64752668
2.4449787 -1.3968229 -0.65122867
2.475811 -1.3930719 -0.65738577
2.5057719 -1.3950932 -0.65669191
2.531503 -1.395312 -0.65132552
2.5646462 -1.3966476 -0.6466583
2.5980899 -1.3937637 -0.64179164
2.6268249 -1.3987404 -0.63933957
2.6554241 -1.3948784 -0.63668853
2.6875141 -1.3950076 -0.63615853
2.7130885 -1.3995727 -0.63462389
2.7321153 -1.3980224 -0.63175809
2.2726808 -1.3524631 -0.65388972
2.2992291 -1.3611265 -0.64940304
2.3294778 -1.3652726 -0.6473856
2.3569398 -1.3620583 -0.6485166
2.3880219 -1.3675179 -0.65148973
2.4153049 -1.3716965 -0.65535009
2.4430654 -1.3773981 -0.65818447
2.4795125 -1.3594025 -0.65788168
2.5038581 -1.3636862 -0.65376383
2.5302358 -1.3658428 -0.64746225
2.5635824 -1.3653582 -0.64188516
2.5964372 -1.3677791 -0.63877881
2.626297 -1.3645849 -0.63650936
2.6542408 -1.3626117 -0.63538283
2.6865122 -1.365073 -0.6349594
2.7095878 -1.3681178 -0.63298136
2.240659 -1.3299518 -0.65546775
2.2649393 -1.3344455 -0.65005898
2.2959514 -1.3360708 -0.64754897
2.3212895 -1.3330991 -0.65035713
2.3516853 -1.3323516 -0.65685064
2.3748162 -1.3449616 -0.65680206
2.4834845 -1.3349912 -0.65550303
2.5030818 -1.3348168 -0.64646375
2.5374098 -1.335292 -0.64041954
2.5706062 -1.3357943 -0.63804859
2.6003039 -1.336174 -0.63678437
2.6263826 -1.3359016 -0.63553584
2.6571147 -1.3349253 -0.6348834
2.6800153 -1.3324906 -0.63280386
2.7028501 -1.3324497 -0.6306901
2.1871166 -1.2956445 -0.65756953
2.2065723 -1.3041241 -0.65555346
2.22825 -1.3030174 -0.65056366
2.2627747 -1.3067291 -0.64929342
2.2940416 -1.3030565 -0.65425241
2.3203394 -1.3107501 -0.65731645
2.4852145 -1.3163803 -0.65426004
2.5019484 -1.304006 -0.64874828
2.5320182 -1.3037593 -0.640374
2.5650401 -1.306725 -0.63775039
2.5991089 -1.3071704 -0.63559479
2.6240623 -1.3060166 -0.63413101
2.6568294 -1.3082632 -0.63391501
2.6857061 -1.3036937 -0.63481432
2.7145653 -1.3040621 -0.63365793
2.7325206 -1.2971919 -0.63405132
2.1469312 -1.2689743 -0.65797055
2.1715462 -1.2740917 -0.65583903
2.2022679 -1.2752945 -0.65345979
2.2352972 -1.2772002 -0.65362352
2.2624204 -1.2805072 -0.65562963
2.2895787 -1.2852165 -0.65994996
2.4895706 -1.2600305 -0.6525442
2.5051036 -1.2748448 -0.64767063
2.5318854 -1.2778503 -0.63644069
2.5611768 -1.2736818 -0.63359582
2.5947211 -1.273999 -0.63373744
2.6322365 -1.2836312 -0.63468516
2.655977 -1.2681093 -0.63799834
2.6894734 -1.275177 -0.63798189
2.7214472 -1.2719961 -0.63548416
2.730828 -1.2753924 -0.63302654
2.11429 -1.244918 -0.65908253
2.143383 -1.2442167 -0.65666616
2.174808 -1.2452238 -0.65533596
2.2046769 -1.246869 -0.65638036
2.2339735 -1.2459888 -0.65904248
2.2603025 -1.2429998 -0.65974152
2.4811232 -1.2441449 -0.64848298
2.4987533 -1.247915 -0.63540292
2.525974 -1.2419243 -0.63195044
2.5662098 -1.2479178 -0.63355845
2.5981553 -1.2404289 -0.63753569
2.6240849 -1.2510713 -0.63778198
2.6538582 -1.2422445 -0.64124763
2.6802526 -1.2442685 -0.64338076
2.7172918 -1.2443889 -0.64095855
2.7369938 -1.2476903 -0.63808799
2.1169879 -1.2208712 -0.65919334
2.143935 -1.2198468 -0.65791363
2.1738448 -1.2178335 -0.6585238
2.2014897 -1.2248756 -0.65847248
2.4530799 -1.2106611 -0.64397049
2.4730382 -1.2206415 -0.63747978
2.5064423 -1.2153847 -0.63301694
2.5390427 -1.2127091 -0.63622576
2.5673163 -1.2152531 -0.63940156
2.5972805 -1.2172493 -0.64208323
2.6284592 -1.2154433 -0.64655626
2.6525354 -1.2241822 -0.6471563
2.6850638 -1.216759 -0.6489023
2.7179685 -1.2153046 -0.63929427
2.7349401 -1.226867 -0.64066696
2.4252551 -1.1778218 -0.64743596
2.444391 -1.188769 -0.64144498
2.4791908 -1.1842911 -0.63622808
2.5034878 -1.1817206 -0.6389116
2.5310798 -1.1839257 -0.64152759
2.5634785 -1.1835836 -0.64560986
2.5958977 -1.1943557 -0.64766806
2.6221867 -1.1812941 -0.64934599
2.6532941 -1.1844836 -0.64752716
2.6840799 -1.1882814 -0.64168793
2.7065907 -1.1915963 -0.63351536
2.3935382 -1.1498367 -0.65581387
2.4169993 -1.1576494 -0.64785892
2.4427242 -1.1523606 -0.64393085
2.4734621 -1.1550056 -0.64426666
2.5085835 -1.1528045 -0.64715433
2.5357525 -1.158181 -0.64772791
2.5640674 -1.152334 -0.64945668
2.5934415 -1.1542104 -0.64745414
2.6224747 -1.1539047 -0.64251179
2.6534257 -1.1576531 -0.63587886
2.6784453 -1.1678072 -0.63250488
2.3632355 -1.1190622 -0.65762466
2.3861768 -1.1279652 -0.65452439
2.4165466 -1.1240586 -0.65263808
2.4449561 -1.1240469 -0.65403974
2.473788 -1.124819 -0.65463173
2.5040841 -1.123538 -0.65332335
2.5342779 -1.1228119 -0.64897007
2.5627289 -1.126489 -0.64389706
2.5945308 -1.1269096 -0.63650566
2.6178546 -1.1325449 -0.63269913
2.7266552 -1.1156685 -0.63259339
2.7433603 -1.1136637 -0.63515055
2.770889 -1.1141255 -0.63357234
2.3604038 -1.0996982 -0.6585899
2.3840919 -1.1052529 -0.65717071
2.4069517 -1.1055709 -0.6578396
2.5055661 -1.0931488 -0.651263
2.5298088 -1.0960987 -0.63996434
2.5636013 -1.1023734 -0.63249213
2.6301751 -1.0870273 -0.63316715
2.655344 -1.0886126 -0.63510287
2.6898768 -1.0993757 -0.6352309
2.7124126 -1.0974617 -0.6374138
2.7436283 -1.0894363 -0.63767636
2.7726703 -1.1018075 -0.63539481
2.4834957 -1.060243 -0.64953238
2.503098 -1.0672404 -0.63840717
2.5272391 -1.0603073 -0.63136512
2.5684049 -1.0581701 -0.63291091
2.591907 -1.0655602 -0.63383889
2.6223371 -1.0627931 -0.63662136
2.6642277 -1.0703969 -0.63819838
2.686352 -1.0594748 -0.63859057
2.7143319 -1.066828 -0.63664961
2.7446074 -1.0722208 -0.63388848
2.4738474 -1.0353943 -0.64793241
2.5020375 -1.0354885 -0.63723564
2.5336151 -1.0360196 -0.63566422
2.5630214 -1.0302235 -0.63649583
2.5985429 -1.0328461 -0.63715535
2.6319628 -1.0370594 -0.63735139
2.6605444 -1.0365753 -0.63643467
2.6824095 -1.0361907 -0.63429844
2.7054992 -1.036093 -0.63226545
2.4740045 -1.0045524 -0.65039337
2.5008173 -1.0047567 -0.64085919
2.5338717 -1.0049623 -0.63900214
2.5646889 -1.004903 -0.63864398
2.5953772 -1.0042279 -0.63800573
2.6274312 -1.0027289 -0.63666356
2.6578927 -1.0058289 -0.63494587
2.6822381 -1.004184 -0.63316214
2.7066951 -1.0055233 -0.63139838
2.4857602 -0.98623562 -0.65234625
2.504735 -0.97582787 -0.64922124
2.5368555 -0.9757688 -0.64334983
2.5659566 -0.9749403 -0.64181054
2.5949829 -0.97484624 -0.64080822
2.6228383 -0.97442466 -0.6392833
2.6518319 -0.97398758 -0.63851947
2.682241 -0.97589082 -0.6350469
2.715081 -0.97561318 -0.63170207
2.7469375 -0.96813792 -0.63064915
2.507406 -0.94593948 -0.65397114
2.5340185 -0.94621015 -0.64735377
2.5660076 -0.94536936 -0.644306
2.5961847 -0.94541234 -0.6417855
2.6243474 -0.9406864 -0.63746458
2.6565108 -0.94654518 -0.63519788
2.6912656 -0.94854289 -0.63271636
2.7214408 -0.95536512 -0.63201666
2.7487159 -0.95271975 -0.63039225
2.4766707 -0.90913171 -0.65446442
2.503226 -0.91609138 -0.65046889
2.5319686 -0.91725123 -0.64556247
2.5625634 -0.91545755 -0.64074123
2.5942338 -0.91502905 -0.63611835
2.6337519 -0.92485702 -0.6338293
2.6583934 -0.92719465 -0.6323359
2.4146857 -0.87630206 -0.65919125
2.4500849 -0.88546282 -0.65675968
2.4738622 -0.88336039 -0.6515947
2.5092881 -0.8855288 -0.6464563
2.5404928 -0.88904732 -0.64171642
2.5658922 -0.89292169 -0.63784319
2.3794022 -0.85903293 -0.65981686
2.4140587 -0.86774451 -0.65930772
2.4522991 -0.86505687 -0.65891886
2.4737437 -0.86359185 -0.65309536
2.5019946 -0.86791146 -0.64722741
1.8755773 -0.78546214 -0.65943283
1.8564658 -0.7710042 -0.65979934
1.8683215 -0.77907634 -0.65929723
2.0652351 -0.72235918 -0.65553594
2.0884161 -0.72940457 -0.65678501
2.1064723 -0.7370227 -0.65899473
1.9739828 -0.69263852 -0.65808338
1.9951439 -0.6990459 -0.65723991
2.0238354 -0.7071659 -0.65539134
2.055414 -0.71729892 -0.65523797
1.9196154 -0.66466051 -0.65782738
1.9316287 -0.67113405 -0.6590721
1.9572865 -0.68288279 -0.65816838
1.2731386 -0.45380965 -0.65423226
1.2263607 -0.35583317 -0.65394855
1.2570519 -0.3276732 -0.65517592
1.2827082 -0.28902876 -0.65603262
1.3432708 -0.20332646 -0.65801322
1.3764411 -0.17469604 -0.64507091
1.3879995 -0.16009337 -0.64507538
1.4027421 -0.14287242 -0.64456183
1.4201014 -0.12721568 -0.64582419
1.4337237 -0.11046009 -0.64368045
1.4464431 -0.097306892 -0.6474393
1.4597313 -0.079900369 -0.64293838
1.4775944 -0.066163428 -0.64826572
1.4896159 -0.046535887 -0.64674574
1.4996774 -0.028666764 -0.65700972
1.5100851 -0.015394249 -0.64367336
1.5234362 0.011273492 -0.64539874
1.5353619 0.02591303 -0.642874
1.548084 0.041568022 -0.645024
1.562728 0.056818996 -0.64628744
1.5778946 0.072723731 -0.64466953
1.5919833 0.087134689 -0.64469743
1.6055135 0.10485691 -0.64567816
1.617185 0.12464894 -0.65522456
1.6336365 0.13433367 -0.64543337
1.6532686 0.14544958 -0.63917571
1.6670587 0.15498395 -0.6483469
1.6947708 0.16414212 -0.6459744
1.722235 0.17359266 -0.65015876
1.7542365 0.18566462 -0.65509301
1.7828553 0.19553059 -0.65367526
1.8183035 0.20751414 -0.65982646
1.8382087 0.21183108 -0.65945244
1.9632759 0.23374659 -0.64284319
1.9915103 0.23987153 -0.64339083
2.0066164 0.24667579 -0.65295976
2.0342026 0.25818333 -0.65375793
2.0537121 0.2621609 -0.64670819
2.0855703 0.26688305 -0.64118254
2.1222534 0.26773986 -0.63825583
2.0372369 0.2753107 -0.65857291
2.0524671 0.28416765 -0.65449649
2.0832641 0.28390285 -0.64776492
2.1119986 0.28546265 -0.64468253
2.1470442 0.28765792 -0.64409387
2.1776381 0.28664523 -0.64200878
2.2027442 0.29356459 -0.64032382
2.2278357 0.29506528 -0.63256675
1.9774154 0.32468301 -0.65938371
1.9970871 0.32316092 -0.65801692
2.0285909 0.32011387 -0.65738106
2.0551724 0.31498086 -0.6557138
2.0844944 0.31461069 -0.65361172
2.1150484 0.31471112 -0.65107834
2.1465292 0.31719163 -0.6494593
2.1785579 0.31365266 -0.64800036
2.2085435 0.31364134 -0.64531946
2.2351384 0.31401584 -0.63980156
2.2595904 0.3222658 -0.63658363
1.9764237 0.33745372 -0.65878338
1.9931449 0.3434208 -0.65675598
2.0197623 0.34443161 -0.65444547
2.0507047 0.34586063 -0.65328044
2.0813143 0.34466314 -0.65181077
2.1119742 0.34444126 -0.65021837
2.1438437 0.34728548 -0.64897138
2.1718853 0.34318793 -0.64934349
2.203702 0.34299451 -0.64833874
2.2365668 0.34579229 -0.64705819
2.2657468 0.34294581 -0.64325625
2.2943041 0.34611917 -0.63962656
2.3198168 0.35136855 -0.63561672
2.3504937 0.3530854 -0.63162136
2.3791962 0.3597908 -0.63207942
2.0021226 0.37043673 -0.65864587
2.0248482 0.37550744 -0.65626734
2.0561345 0.37694931 -0.6538049
2.0875781 0.37515262 -0.65231156
2.1164746 0.37484553 -0.65027916
2.1473479 0.37267911 -0.64850563
2.1766131 0.3765066 -0.64858192
2.2070994 0.37519875 -0.6481899
2.2370656 0.37627316 -0.64835942
2.2682829 0.37195703 -0.64703059
2.2954066 0.37699464 -0.64645165
2.3261745 0.37354773 -0.64378518
2.3542826 0.37695864 -0.64217269
2.3837123 0.37738532 -0.64097524
2.4136574 0.37632287 -0.63865101
2.4598889 0.37888861 -0.63707465
2.498888 0.38512456 -0.63633025
2.0003865 0.40838987 -0.65786421
2.0247798 0.40482071 -0.6559462
2.0594206 0.40672147 -0.65399927
2.0908573 0.40398142 -0.65317494
2.1156924 0.4033168 -0.65121406
2.1402292 0.40787584 -0.64940852
2.1732399 0.40464234 -0.64870292
2.2025506 0.40542045 -0.64823681
2.2352712 0.40443245 -0.64836776
2.2693865 0.40353975 -0.64860409
2.2898469 0.40637439 -0.64800751
2.3231161 0.40617487 -0.6478498
2.3553953 0.40778932 -0.64674222
2.3771982 0.4053725 -0.64619136
2.4128449 0.40360287 -0.64662498
2.4428253 0.402841 -0.64655155
2.4719639 0.40821078 -0.64779645
2.499902 0.40563855 -0.64706153
2.540051 0.40573278 -0.6466139
2.5613806 0.41487867 -0.65056735
2.5894375 0.40643716 -0.6418792
2.6248925 0.40863851 -0.63980687
2.6433105 0.40969068 -0.63729548
2.6833439 0.41686288 -0.63846916
2.7280107 0.41652668 -0.63445681
2.7384827 0.41857743 -0.63011533
1.9052031 0.44510743 -0.65872663
1.9335557 0.44285372 -0.65785676
1.9676936 0.44017234 -0.65477157
1.9928302 0.43523619 -0.65032476
2.0219009 0.43365657 -0.64708143
2.0555499 0.43347976 -0.64829451
2.0850925 0.43442923 -0.64979899
2.1121867 0.43616855 -0.64950174
2.1405814 0.43423185 -0.64921987
2.1753569 0.43431997 -0.64835095
2.2041588 0.43534386 -0.64774394
2.2360325 0.43058437 -0.64827985
2.2664008 0.4368844 -0.64820689
2.2942252 0.43574747 -0.64810926
2.3228388 0.43579042 -0.64695418
2.3557367 0.43688896 -0.64724463
2.3853064 0.43417442 -0.64703965
2.4168644 0.43450823 -0.64833009
2.4483292 0.43458667 -0.64945841
2.4767864 0.43637559 -0.64976549
2.5125053 0.43715686 -0.65144354
2.5406606 0.43142208 -0.65163743
2.5709345 0.43653226 -0.65273213
2.5996318 0.42697555 -0.65192956
2.6281228 0.43680018 -0.65363705
2.6621685 0.4419606 -0.6532107
2.693512 0.43713206 -0.65028965
2.7151704 0.44043052 -0.64662141
2.7434947 0.43769804 -0.6380533
2.7657433 0.4498046 -0.63388753
1.8747885 0.46885934 -0.65713859
1.9039218 0.46471664 -0.65455878
1.9342695 0.46411163 -0.65216345
1.964439 0.4631266 -0.64845699
1.9968382 0.46311429 -0.64332885
2.0266116 0.46756458 -0.63994813
2.052695 0.46093911 -0.64085519
2.0799637 0.46249226 -0.64176935
2.1115336 0.46474025 -0.6442011
2.1390884 0.46649784 -0.64604467
2.1701107 0.46428105 -0.64807993
2.2035775 0.46676642 -0.64942551
2.2342951 0.46505097 -0.64971489
2.2650881 0.46195045 -0.64907181
2.2961383 0.46830487 -0.64902848
2.3289275 0.46502733 -0.64736307
2.3563907 0.46600208 -0.6451934
2.3772552 0.46384811 -0.64442128
2.4100702 0.46563035 -0.64526469
2.4447265 0.46547735 -0.64683557
2.471765 0.46548662 -0.64782935
2.5069981 0.46659029 -0.64940524
2.5444503 0.46521029 -0.65133643
2.5728114 0.46679723 -0.65119284
2.6047454 0.46918866 -0.6515888
2.6234109 0.46223867 -0.65249866
2.6581819 0.46193689 -0.65255052
2.6893001 0.46764681 -0.64915735
2.7144668 0.46541733 -0.64566833
2.7436421 0.46557686 -0.6384936
2.7645588 0.46505892 -0.63317049
1.8556377 0.49977896 -0.65944731
1.8729265 0.49554709 -0.65408051
1.9035786 0.49368545 -0.65044183
1.9322518 0.49519011 -0.64714217
1.9649328 0.49419829 -0.64539605
1.9937527 0.49385652 -0.64370108
2.0231843 0.49557075 -0.64259404
2.055995 0.4959017 -0.64112163
2.0825937 0.49170372 -0.64030015
2.1050594 0.4978579 -0.64169908
2.1344409 0.49488789 -0.64343536
2.1610429 0.49472284 -0.64566976
2.1929677 0.49596646 -0.64829731
2.2317324 0.49357519 -0.6512053
2.2675908 0.49513599 -0.65274936
2.2973289 0.49617329 -0.65215099
2.3263555 0.49450931 -0.65142155
2.3554182 0.49513271 -0.64937633
2.3850031 0.49569482 -0.64723366
2.4119191 0.49252096 -0.64472395
2.4438686 0.496755 -0.64355111
2.4785497 0.49482942 -0.64274359
2.5072114 0.50006557 -0.64276618
2.5330794 0.49323416 -0.64531553
2.5638518 0.49593735 -0.6461798
2.5917623 0.49381766 -0.64728409
2.6244323 0.49177453 -0.64881718
2.651885 0.49295008 -0.64811748
2.6812327 0.49565077 -0.6442948
2.7103868 0.49397367 -0.63670135
2.7382646 0.49022537 -0.63261211
1.493315 0.53787625 -0.65243107
1.5060292 0.53833574 -0.65505886
1.8285654 0.53419966 -0.65893924
1.850379 0.52477324 -0.65647757
1.8727323 0.52453929 -0.65121853
1.902779 0.52566946 -0.64902735
1.9354658 0.52498347 -0.64748782
1.9622968 0.52498049 -0.64349592
1.9916725 0.52403218 -0.64217895
2.0260708 0.52527267 -0.6421327
2.0535169 0.5239448 -0.64289314
2.0864506 0.52679628 -0.64336437
2.118361 0.52632523 -0.64411801
2.1442888 0.52089709 -0.64436483
2.1779327 0.5259909 -0.64605731
2.210721 0.53396815 -0.64805251
2.2245181 0.52125561 -0.64998746
2.2587368 0.52508509 -0.65275586
2.2890687 0.52476883 -0.65459573
2.3211601 0.52458465 -0.65518367
2.3555901 0.52790743 -0.65599328
2.3860204 0.52256095 -0.65291947
2.4152615 0.52268285 -0.64993817
2.4439104 0.52395368 -0.64668596
2.473417 0.52693534 -0.64346898
2.5013311 0.52369738 -0.64084327
2.5283163 0.52294654 -0.64059436
2.5640156 0.52459252 -0.64184886
2.5995624 0.52591997 -0.64291364
2.6330543 0.52343684 -0.64353925
2.6598709 0.5208087 -0.64374429
2.6823194 0.52465284 -0.64081633
2.7166388 0.5229004 -0.63730013
2.7440572 0.5283826 -0.6336121
1.3684671 0.5686363 -0.64774144
1.4250727 0.56150126 -0.64505535
1.4555602 0.55518436 -0.64460135
1.4825586 0.54716498 -0.64409488
1.514567 0.54664755 -0.64232284
1.5438209 0.55696857 -0.64703888
1.5658107 0.56516385 -0.65357745
1.8468412 0.54706585 -0.6577934
1.8756529 0.55337191 -0.65373576
1.9046906 0.5566023 -0.64819384
1.9330086 0.55474538 -0.64724064
1.9647914 0.55445766 -0.64725935
1.9936901 0.55631065 -0.64392984
2.0188498 0.55226874 -0.63957173
2.0536039 0.55543029 -0.63961339
2.0879619 0.55250347 -0.64172274
2.1191533 0.55513954 -0.64349717
2.1432114 0.55433035 -0.64453942
2.1748347 0.55543566 -0.645244
2.2078207 0.55444056 -0.6467855
2.2455285 0.56097287 -0.64867222
2.2584889 0.5520035 -0.65020829
2.2851403 0.55171722 -0.65291125
2.3187249 0.55786252 -0.6551519
2.3562677 0.5572257 -0.65831196
2.3830097 0.55240899 -0.65813881
2.4157665 0.55516416 -0.65708095
2.4473302 0.5531922 -0.65385407
2.4737465 0.5537132 -0.65106356
2.5060971 0.55382341 -0.64648592
2.5380232 0.55461019 -0.64294505
2.5694196 0.55818528 -0.64280051
2.603569 0.5506233 -0.64289868
2.6286612 0.55790257 -0.64355379
2.654737 0.54144114 -0.64409202
2.6817541 0.55356622 -0.64429843
2.7158737 0.55232668 -0.64309263
2.7461224 0.55428725 -0.64035553
2.7748814 0.55376089 -0.63703644
2.8023622 0.5565595 -0.63363409
2.8339024 0.56176704 -0.6325841
2.8502827 0.56614697 -0.63205755
1.3376229 0.58943611 -0.64601469
1.3957531 0.57077229 -0.64811182
1.4123611 0.57063246 -0.65631938
1.5761534 0.57508361 -0.64330018
1.6039939 0.58763814 -0.64844924
1.6246128 0.59841335 -0.64610797
1.8861136 0.57284933 -0.65800828
1.9083984 0.58009899 -0.65273345
1.933936 0.58644545 -0.64754581
1.9646326 0.58560216 -0.64639348
1.997352 0.58425647 -0.64684105
2.026582 0.58490562 -0.64322853
2.05476 0.58223009 -0.63977784
2.0851276 0.58399636 -0.64066708
2.1139715 0.58651602 -0.64203072
2.1426189 0.5841499 -0.64233774
2.1754868 0.58279586 -0.64385009
2.2110298 0.58374876 -0.64504272
2.236676 0.58549768 -0.64592153
2.2683809 0.58419985 -0.64814508
2.3018687 0.58575171 -0.65053427
2.3282735 0.58810633 -0.65289879
2.3469796 0.58052701 -0.65555155
2.3761716 0.58505768 -0.65655655
2.406291 0.58704811 -0.65769887
2.4445407 0.58485609 -0.65805352
2.479609 0.58594221 -0.65689093
2.5066571 0.5831399 -0.65587699
2.5345893 0.58228606 -0.65210336
2.5633476 0.58963162 -0.6487326
2.5958655 0.58870405 -0.64408505
2.6253333 0.58625931 -0.64256948
2.6468101 0.57527161 -0.64449918
2.6869497 0.58716422 -0.64571232
2.7237492 0.57025647 -0.64704567
2.7401409 0.58430994 -0.64808416
2.7672794 0.59212339 -0.64817846
2.7991209 0.58190686 -0.64486194
2.8363342 0.58565992 -0.64182425
2.8585896 0.5816679 -0.63619089
2.889503 0.58736277 -0.63415414
2.9255157 0.59958714 -0.63060987
1.6391026 0.60673743 -0.64359844
1.661657 0.61714953 -0.64730197
1.6834043 0.62709904 -0.65279561
1.9386024 0.60792047 -0.65460718
1.9642355 0.61736608 -0.65020937
1.9946384 0.61386418 -0.64684564
2.0210593 0.61381012 -0.64726388
2.0547113 0.61322582 -0.64621323
2.08513 0.61348456 -0.64530802
2.1153367 0.61445361 -0.64564705
2.1449003 0.61560595 -0.64560896
2.1783888 0.61387002 -0.64575803
2.2091913 0.61567229 -0.64616781
2.2372127 0.61359233 -0.6464783
2.266856 0.61701322 -0.64768034
2.2955031 0.61198562 -0.64832669
2.3332617 0.61525786 -0.65146512
2.3624561 0.61500275 -0.65264076
2.3916893 0.61447078 -0.65369385
2.4170387 0.61416012 -0.65466744
2.4485607 0.61163193 -0.65588105
2.4772739 0.61601853 -0.65547711
2.5033526 0.61679798 -0.6545704
2.5323949 0.61423141 -0.65567654
2.5682721 0.61865622 -0.65451097
2.5954688 0.6158393 -0.64900565
2.6269488 0.61319929 -0.64286792
2.6599581 0.61511582 -0.6407122
2.6821914 0.62177169 -0.63763112
2.7086611 0.61182612 -0.64288324
2.7438679 0.61136746 -0.6473785
2.7781649 0.61745566 -0.64934945
2.8127484 0.60209101 -0.64983952
2.8365288 0.61331582 -0.65163487
2.8685286 0.61137736 -0.64826667
2.8947105 0.61884671 -0.64883441
2.9225721 0.61615437 -0.64057499
2.9535706 0.62102419 -0.63456172
2.9754887 0.62350512 -0.63139641
1.33568 0.64598042 -0.64506
1.7002283 0.63621229 -0.64681572
1.7262831 0.64917284 -0.64537781
1.7463664 0.65821034 -0.6513198
1.9680015 0.64143455 -0.65611476
1.994046 0.64597267 -0.65146565
2.0251651 0.64476275 -0.64951491
2.0541162 0.6465767 -0.65008134
2.0854735 0.64242488 -0.65029156
2.116817 0.64873374 -0.65185726
2.1432674 0.64216477 -0.65074039
2.1729181 0.64678735 -0.65147954
2.2029147 0.64623737 -0.65126652
2.2343583 0.64334255 -0.65074587
2.2619047 0.64376485 -0.65130055
2.29479 0.6441102 -0.65151864
2.3293166 0.64509189 -0.65179491
2.3581619 0.64291614 -0.65218377
2.3929996 0.64159614 -0.65423554
2.4163632 0.6466912 -0.65480709
2.44557 0.64711767 -0.65495205
2.474936 0.64612484 -0.65406179
2.5028307 0.6435467 -0.65094137
2.5357242 0.6437068 -0.64970928
2.564986 0.64388597 -0.64825159
2.5964363 0.64412278 -0.64569819
2.6300042 0.64512044 -0.64498985
2.6526928 0.64524037 -0.64236474
2.680048 0.64173019 -0.63917351
2.7258823 0.64779466 -0.63874817
2.7441742 0.6350373 -0.6425274
2.7779944 0.65485352 -0.64179945
2.8090336 0.64568591 -0.64773041
2.8417146 0.63660079 -0.65395641
2.8513727 0.63957924 -0.65560985
2.9007423 0.64440066 -0.65781909
2.9298129 0.6459645 -0.65465486
2.9574344 0.6452499 -0.64779139
2.9842544 0.64689738 -0.63879406
3.0145161 0.65405577 -0.63448125
1.3436697 0.67506254 -0.64637333
1.7598035 0.66633248 -0.64340639
1.7910609 0.68221116 -0.64701229
1.9790268 0.66847622 -0.65968871
1.9980106 0.67418492 -0.65637428
2.025213 0.67688739 -0.65327644
2.055712 0.67567372 -0.65189588
2.0877504 0.67622644 -0.65303671
2.1204839 0.67671812 -0.6547339
2.1467209 0.67323512 -0.65513909
2.1738963 0.67723113 -0.65575939
2.2023258 0.67753255 -0.6562053
2.2337949 0.67156047 -0.65619069
2.2633309 0.6757111 -0.65708661
2.2969766 0.67332989 -0.65721858
2.3274479 0.67594647 -0.65757585
2.354033 0.67398012 -0.65646982
2.3836246 0.67540389 -0.65656859
2.4167967 0.67577285 -0.65731603
2.4468966 0.6745767 -0.65725148
2.4760232 0.6764155 -0.65755987
2.5048382 0.67286283 -0.65466374
2.535732 0.67368841 -0.65068144
2.5640497 0.67345202 -0.64581937
2.5934997 0.67513663 -0.6403119
2.6268959 0.67501962 -0.64011443
2.6581812 0.67520142 -0.64043534
2.6809292 0.67051911 -0.64086092
2.7097898 0.67557609 -0.63978297
2.7461112 0.67617232 -0.63997495
2.7760763 0.67955726 -0.64063811
2.8390777 0.67734808 -0.6456939
2.8714366 0.67147368 -0.65167868
2.893677 0.66532081 -0.65586215
2.9339063 0.68413097 -0.65576869
2.9503145 0.67246342 -0.65905368
2.985904 0.67768681 -0.65383267
3.0155582 0.67575932 -0.6441772
3.0435472 0.67760897 -0.63728297
3.0678692 0.6879096 -0.63392574
1.3484212 0.69632745 -0.64376396
1.3533852 0.71015352 -0.64663565
1.8136991 0.69620937 -0.64250737
1.8403894 0.70873225 -0.64990681
1.8611518 0.71795315 -0.65568197
2.0270474 0.70105916 -0.65813786
2.055531 0.70478427 -0.65581906
2.0819061 0.7077027 -0.6549868
2.1088521 0.7055108 -0.65579897
2.1420424 0.70506018 -0.65750432
2.17506 0.70776457 -0.65846866
2.2040362 0.7018953 -0.65803885
2.2361131 0.70588082 -0.65888596
2.2660284 0.70030177 -0.65957725
2.3885844 0.69270551 -0.6587615
2.4070518 0.6998781 -0.65992194
2.4309385 0.69230884 -0.6598978
2.5037661 0.69366276 -0.65867132
2.5337598 0.69801778 -0.6567955
2.5643163 0.70342964 -0.65291798
2.595366 0.70550603 -0.64489347
2.631989 0.70737201 -0.63840604
2.665143 0.70470577 -0.63779521
2.6928661 0.70492929 -0.63691175
2.7233565 0.7121563 -0.63617682
2.7439318 0.70664972 -0.63701898
2.7741792 0.70723957 -0.63728505
2.8012712 0.71304369 -0.63774681
2.834703 0.7018404 -0.64410007
2.8796201 0.71634746 -0.64511311
2.8859243 0.70524681 -0.6465956
2.9234359 0.70731229 -0.64981931
2.9565675 0.7042942 -0.65237385
2.9839447 0.70465773 -0.65146846
3.0105371 0.70783502 -0.64681011
3.0414693 0.7038365 -0.64343804
3.0749652 0.70536751 -0.63562804
3.0972028 0.71775913 -0.63410187
1.361936 0.73481977 -0.64460135
1.8496858 0.7244944 -0.63348067
1.8715376 0.72698957 -0.65004331
1.8947458 0.74314457 -0.64766043
2.0601726 0.72652495 -0.65923429
2.0914261 0.73142469 -0.65825623
2.1167023 0.73535681 -0.65886253
2.1459873 0.72724235 -0.65970296
2.1647325 0.72074074 -0.6596601
2.2378287 0.72785884 -0.65938807
2.2727001 0.74725592 -0.65979314
2.2933104 0.74291891 -0.65955591
2.3141067 0.74899745 -0.65896171
2.5988019 0.72777593 -0.65398526
2.6255097 0.73304641 -0.64725953
2.652683 0.73825097 -0.64237309
2.6805129 0.73450249 -0.63728619
2.7129793 0.73653346 -0.63551414
2.741945 0.73703772 -0.6325556
2.7679636 0.73007941 -0.63122267
2.8078289 0.72763181 -0.6320644
2.8399074 0.72562426 -0.63564736
2.864769 0.72741979 -0.63778764
2.8930943 0.73331606 -0.63706732
2.9226048 0.73516726 -0.63767105
2.9518316 0.73337156 -0.63826352
2.9830759 0.7311123 -0.64057583
3.016345 0.73384178 -0.63947928
3.0447066 0.7338922 -0.63900143
3.0762978 0.73270863 -0.63423491
3.0955901 0.73852563 -0.63312566
3.1221693 0.73925102 -0.6302433
1.3725826 0.76381528 -0.64435333
1.3810005 0.77725196 -0.65607667
1.9097337 0.75721282 -0.64503193
1.9322373 0.76396382 -0.65148085
1.955714 0.7797243 -0.65047133
2.27231 0.75227928 -0.65955698
2.297982 0.76100248 -0.65862238
2.3228524 0.76967251 -0.65438092
2.3533285 0.7677598 -0.65407062
2.3815711 0.77369672 -0.65426695
2.4086118 0.77486479 -0.65802258
2.6533496 0.75655693 -0.65194893
2.6859264 0.76401258 -0.64436269
2.7205925 0.76749265 -0.63755733
2.7434945 0.76418579 -0.63442624
2.7735062 0.7648676 -0.63106245
2.9593241 0.75106239 -0.63109398
3.0063226 0.75603211 -0.63193029
3.0497732 0.75597376 -0.63214064
3.0777152 0.7565549 -0.63197416
3.0945153 0.75236988 -0.6324749
1.3875628 0.79628372 -0.64734447
1.9409802 0.7804873 -0.64644778
1.9650986 0.7848562 -0.65288854
2.0009589 0.80874908 -0.65747482
2.3250701 0.79523301 -0.64892441
2.3533912 0.79431671 -0.63993561
2.3839979 0.79562628 -0.63967043
2.4127798 0.79474884 -0.64388567
2.4445345 0.79681742 -0.64808059
2.474741 0.80161828 -0.65018505
2.5003078 0.8058899 -0.65450186
2.7152812 0.78750557 -0.65074259
2.7478602 0.79124683 -0.64164299
2.7752199 0.79675263 -0.63660401
2.8086336 0.80319291 -0.63181108
1.3997138 0.8203364 -0.64700615
1.4115082 0.83512402 -0.64207244
2.0079486 0.81955463 -0.6590749
2.1186848 0.83669919 -0.65949291
2.1495316 0.83106029 -0.65910685
2.1732426 0.82651508 -0.65669668
2.2028759 0.8321085 -0.65484136
2.2289448 0.83328295 -0.65717483
2.3337386 0.81938827 -0.65133041
2.3526485 0.82829267 -0.6431877
2.3850279 0.82492048 -0.63309103
2.4211855 0.82648003 -0.63171953
2.4422951 0.82212913 -0.63401431
2.472486 0.81940109 -0.63699019
2.5064449 0.82494771 -0.64153081
2.531966 0.82577014 -0.64390063
2.564235 0.83070433 -0.64615619
2.5876336 0.8338998 -0.65431476
2.6138656 0.83904195 -0.65948355
2.7787409 0.81673002 -0.64923763
2.8082421 0.82653266 -0.64344364
2.8339651 0.83466095 -0.63740665
2.8505461 0.8204779 -0.63002348
1.4272968 0.85223877 -0.65035194
2.0561528 0.85942799 -0.65804422
2.0858729 0.85818398 -0.65640032
2.1179955 0.85559487 -0.65638691
2.1424417 0.85427028 -0.6549719
2.1752071 0.85467225 -0.65239251
2.2076874 0.85593796 -0.64941627
2.2362103 0.85420674 -0.65068704
2.2640333 0.8587088 -0.65282744
2.2910156 0.85907984 -0.65695858
2.3243847 0.86558861 -0.65659654
2.3535612 0.85482669 -0.65271586
2.3837624 0.85644656 -0.64195949
2.4165325 0.85396665 -0.63447279
2.4493091 0.85724139 -0.63289958
2.4610159 0.84266585 -0.63390982
2.5016918 0.85186034 -0.63533849
2.5356145 0.85069001 -0.63513416
2.5675228 0.85486996 -0.63462174
2.5943625 0.84167242 -0.64363807
2.6240253 0.85291648 -0.644171
2.6605868 0.86165816 -0.64853555
2.8384008 0.85046357 -0.64954346
2.8668423 0.85958982 -0.64054048
3.2072191 0.86874551 -0.6317867
3.2504063 0.8607049 -0.63133258
3.2946317 0.85238886 -0.63084412
3.3230803 0.86953914 -0.63450658
3.3472524 0.85775757 -0.63090408
2.0370004 0.88628823 -0.65432972
2.0554965 0.88474101 -0.65123814
2.0844495 0.88202888 -0.64953625
2.1185548 0.88425612 -0.65069729
2.1478684 0.88270968 -0.65168029
2.1774273 0.88586301 -0.65075338
2.2068133 0.88293344 -0.64793831
2.2372382 0.88518816 -0.64494038
2.2694623 0.88679534 -0.64570481
2.2952895 0.88356858 -0.64874464
2.3260586 0.88472164 -0.65137625
2.360225 0.88487172 -0.65213406
2.3877428 0.88375252 -0.64834428
2.4143584 0.88158977 -0.6416406
2.4437511 0.8891654 -0.63794655
2.4715724 0.88450128 -0.63478136
2.503299 0.88155705 -0.63569272
2.5469177 0.88451988 -0.6386559
2.5632687 0.88178182 -0.63908732
2.5883934 0.88653129 -0.63707858
2.6226802 0.87997335 -0.63606071
2.6668489 0.88647819 -0.63831395
2.6920445 0.87579298 -0.64552307
2.7273679 0.88144583 -0.65315092
2.7471199 0.88630837 -0.65365374
2.8784671 0.87138075 -0.63974655
2.8968427 0.88544071 -0.64417732
2.9111724 0.8937583 -0.638125
3.233701 0.88544548 -0.63530332
3.2466545 0.89749694 -0.63688767
3.2843494 0.88366222 -0.63569999
3.3515177 0.88682997 -0.63816237
3.3836415 0.88145369 -0.63543499
3.4153957 0.8877815 -0.63599294
3.4471657 0.89403164 -0.63647979
3.5149128 0.89079362 -0.63035101
2.0561318 0.91567427 -0.65077591
2.085166 0.91387695 -0.64607924
2.1189442 0.913544 -0.64840424
2.1497388 0.91384149 -0.65058273
2.1727107 0.91623974 -0.65123779
2.2026534 0.91363901 -0.65144837
2.2342622 0.91154033 -0.64715606
2.2653501 0.9158805 -0.64508712
2.2915108 0.91509181 -0.64369851
2.324192 0.91558564 -0.64581823
2.357399 0.91588461 -0.64790404
2.3890407 0.91493726 -0.64952332
2.416502 0.91584039 -0.64756674
2.4452279 0.91287977 -0.64170909
2.4749703 0.91786361 -0.63795972
2.5061295 0.91179329 -0.63532341
2.543685 0.92615288 -0.63669878
2.5585597 0.91248083 -0.64011425
2.5980024 0.90922159 -0.64220303
2.6268888 0.91103995 -0.64036989
2.6521137 0.9174124 -0.64055717
2.6858413 0.91645592 -0.64097756
2.7237568 0.91058278 -0.64218742
2.7466984 0.90144032 -0.64681029
2.778245 0.91927892 -0.64741695
2.8072577 0.9171043 -0.65343517
2.8491693 0.92797399 -0.6587534
2.9244971 0.91140616 -0.64410877
2.9432411 0.9269104 -0.64259827
3.2238429 0.92296636 -0.63246405
3.2545297 0.91532487 -0.63748348
3.333734 0.91224277 -0.64222378
3.3809114 0.90459114 -0.64194512
3.4112606 0.92282939 -0.64585435
3.4609585 0.91490769 -0.64169937
3.4948053 0.91350609 -0.63870311
3.5275726 0.9199748 -0.63915205
3.5472555 0.90943074 -0.63422155
3.5824823 0.90368015 -0.63117766
3.6167686 0.92301929 -0.63521016
2.0696821 0.94105154 -0.65834033
2.0861211 0.94270384 -0.65133208
2.113131 0.94773972 -0.64781225
2.1433091 0.94249153 -0.6481967
2.1714113 0.94815373 -0.64940077
2.2001903 0.94383621 -0.65216357
2.2335379 0.94468904 -0.65340316
2.2661755 0.943183 -0.65039384
2.2947714 0.94646037 -0.64769864
2.3206925 0.94753408 -0.6454072
2.3471513 0.94331038 -0.64480722
2.3802521 0.94360656 -0.6467306
2.417366 0.94826353 -0.64923799
2.4473057 0.94492406 -0.64785755
2.4795251 0.94590342 -0.64356339
2.5020232 0.9439975 -0.63727933
2.5356669 0.94484758 -0.63284153
2.5630238 0.94661695 -0.63408446
2.5897264 0.94410062 -0.63650894
2.6261725 0.94163269 -0.64247066
2.6605561 0.94490266 -0.64231831
2.6872611 0.95753449 -0.63992703
2.7053642 0.94701439 -0.64372379
2.737385 0.94503248 -0.64364296
2.7696931 0.94594496 -0.64337075
2.8140025 0.94851321 -0.64509684
2.8380563 0.94449329 -0.64747494
2.8642027 0.94662178 -0.65045011
2.9008338 0.95274621 -0.65205026
2.9218891 0.94999832 -0.65259629
2.9437618 0.94389218 -0.64379817
3.3630986 0.93026197 -0.64606678
3.3924522 0.94842672 -0.64990306
3.6696589 0.93975067 -0.6377005
3.7842493 0.95747733 -0.63103837
1.546103 0.96181589 -0.65985703
2.1123707 0.96853763 -0.65427923
2.140044 0.97597969 -0.65203279
2.1701624 0.97787648 -0.649876
2.1951163 0.97667187 -0.65000856
2.22244 0.97397238 -0.65162075
2.257355 0.97424477 -0.65407622
2.2935884 0.97640163 -0.65509945
2.3242795 0.97296196 -0.65096295
2.3552003 0.9755131 -0.64794248
2.3871715 0.97492599 -0.64731741
2.4245648 0.97728318 -0.64993221
2.4538631 0.97635508 -0.65072334
2.475816 0.9750936 -0.64981502
2.5087302 0.97218227 -0.64446592
2.5331237 0.97807729 -0.64038074
2.5545702 0.97834522 -0.63334882
2.6070549 0.96356839 -0.63036394
2.6303473 0.96246135 -0.63490534
2.6533289 0.96684855 -0.63618338
2.6801984 0.97266263 -0.63502449
2.710732 0.96882564 -0.63518429
2.7423613 0.9670046 -0.63759148
2.7757535 0.97186983 -0.63639325
2.8082378 0.97269821 -0.63787919
2.8382854 0.97543031 -0.63753223
2.8587775 0.97970772 -0.63593447
2.8918736 0.97457403 -0.63968688
2.9237483 0.96892476 -0.63695592
2.9446595 0.96234912 -0.63716215
3.2845035 0.97114396 -0.63264662
3.3215427 0.97339916 -0.63821417
3.3595657 0.97576129 -0.64392793
3.3746321 0.97343868 -0.64630651
2.1513486 0.99550807 -0.65608644
2.1727886 1.0019674 -0.65547937
2.2018187 1.007435 -0.65411133
2.2322295 1.0001901 -0.65150994
2.2652864 1.0096099 -0.65308064
2.2867563 0.99649507 -0.65592319
2.3218026 1.0040758 -0.65660822
2.3556757 1.0063024 -0.65470862
2.3882897 1.0066235 -0.65207738
2.4203451 1.0028671 -0.65045053
2.4364297 1.0146946 -0.65138978
2.470166 1.0032589 -0.65199405
2.5033462 1.0059963 -0.65243781
2.5387783 1.0044078 -0.64818615
2.5658002 1.0071212 -0.64034736
2.5914876 1.0095351 -0.63328767
3.3421431 1.0075611 -0.63248694
3.3726296 1.0112481 -0.6369313
2.2096629 1.0217836 -0.65732229
2.2377682 1.0327142 -0.65703106
2.2713919 1.0356302 -0.65291762
2.3013377 1.0403153 -0.65148693
2.3217623 1.0329767 -0.65376884
2.3537583 1.0329593 -0.65593755
2.3835194 1.0356358 -0.65639549
2.4155688 1.0356741 -0.65412056
2.4429276 1.0324533 -0.6522702
2.4728522 1.0336903 -0.65307558
2.5069847 1.0367914 -0.65457678
2.5392909 1.0324609 -0.65458971
2.5613246 1.0356317 -0.64918989
2.5953083 1.036523 -0.63940829
2.6253333 1.0340892 -0.63283938
2.6526814 1.040318 -0.63065755
3.4195275 1.0209099 -0.64362699
3.4341276 1.0496871 -0.63691008
2.2652133 1.0539262 -0.65787089
2.2942467 1.0646044 -0.65157002
2.3323317 1.0669956 -0.64852917
2.3522158 1.0625145 -0.65101182
2.384711 1.0636998 -0.65506589
2.4202247 1.0693109 -0.65733159
2.4444544 1.0643581 -0.65475267
2.4767461 1.0647234 -0.65297401
2.501652 1.0631725 -0.65263748
2.5383885 1.0706224 -0.65439743
2.5704854 1.0631338 -0.65170449
2.5978563 1.0661271 -0.6438247
2.6259072 1.0662528 -0.63759899
2.6554234 1.063587 -0.63285887
2.6838722 1.0711445 -0.63151199
3.4655998 1.0535861 -0.64141858
2.3041277 1.0868948 -0.65475029
2.3264997 1.0927379 -0.6517756
2.3578601 1.0934933 -0.64904016
2.3942862 1.0966722 -0.65074337
2.4194558 1.0960786 -0.65317523
2.4454544 1.0970434 -0.6536774
2.4720056 1.0925846 -0.65362525
2.5042908 1.0968593 -0.65217257
2.5363054 1.0979457 -0.65051711
2.5677583 1.0904377 -0.65012437
2.5960135 1.0964419 -0.64482534
2.6256058 1.0942408 -0.63956076
2.6541238 1.0956792 -0.63645715
2.6798394 1.0931937 -0.63290823
2.701721 1.0989395 -0.6319353
2.7314749 1.1072023 -0.63100564
3.4811506 1.0831419 -0.63465971
3.5309563 1.0940881 -0.64150345
2.3328006 1.1147517 -0.65617347
2.349767 1.1280874 -0.65542215
2.3859141 1.1200234 -0.65091652
2.4177907 1.1252697 -0.65066874
2.4484005 1.1242807 -0.65069807
2.476958 1.1228778 -0.65125817
2.5021067 1.1249888 -0.65085018
2.5339572 1.1236773 -0.64964068
2.5627518 1.1246802 -0.64705014
2.5909569 1.125479 -0.64322358
2.6230803 1.1276275 -0.63950485
2.6580312 1.1238304 -0.63737965
2.6888738 1.1275859 -0.6347636
2.7119374 1.1264246 -0.63297278
2.732656 1.1238111 -0.63068497
3.5471137 1.1161518 -0.63489807
2.0063596 1.1549616 -0.65820903
2.0274217 1.1581365 -0.65577865
2.0577717 1.1650131 -0.65587664
2.0731041 1.1671681 -0.65798265
2.3623307 1.1587186 -0.65568012
2.381582 1.1515214 -0.65313262
2.4145279 1.1558599 -0.65269274
2.4465251 1.1551002 -0.65216953
2.4827654 1.1495647 -0.65170032
2.512394 1.1574466 -0.65205097
2.5262446 1.152985 -0.64931589
2.5607426 1.1557815 -0.6478976
2.5969033 1.1557953 -0.64281201
2.6311779 1.1551732 -0.63763452
2.660995 1.1540406 -0.6347062
2.6867583 1.1548327 -0.63348281
2.7093301 1.1536419 -0.63160008
2.7376266 1.155262 -0.63058662
3.5986228 1.1438279 -0.6329751
2.0287504 1.1779908 -0.65472651
2.0548763 1.1836742 -0.65113592
2.084549 1.1828904 -0.65289712
2.1127443 1.1919161 -0.65316403
2.1407292 1.1962692 -0.65694708
2.3654585 1.1882772 -0.65312243
2.3831365 1.1880498 -0.64653242
2.4150624 1.1849506 -0.64716208
2.4397621 1.1860278 -0.65016514
2.4687822 1.1855755 -0.65329134
2.5021148 1.1845011 -0.65480852
2.5389667 1.1883547 -0.65341091
2.564513 1.1839716 -0.64711696
2.5956008 1.1856633 -0.64227653
2.6265657 1.1841524 -0.63916999
2.6564064 1.1876743 -0.63502586
2.6844075 1.1851069 -0.63205957
2.7124088 1.1839793 -0.631199
2.7444746 1.1943567 -0.63058913
2.7758775 1.1944141 -0.63003981
1.9177864 1.2207747 -0.65970159
1.9377621 1.2241255 -0.65941083
2.0601411 1.211069 -0.65610117
2.0818887 1.2164266 -0.65177894
2.1109746 1.2125553 -0.64971375
2.1482399 1.2152419 -0.65038192
2.1792991 1.2181754 -0.65058941
2.2021732 1.2148436 -0.65157431
2.2333298 1.2173566 -0.65281254
2.2638719 1.2167687 -0.6566174
2.2990339 1.2211593 -0.65853167
2.32828 1.2167 -0.65574467
2.3526781 1.2119032 -0.64373314
2.3933015 1.2045178 -0.63490236
2.4186532 1.2081095 -0.63770896
2.4459467 1.2115 -0.64189631
2.4725485 1.2134954 -0.64756393
2.5011814 1.2104735 -0.65382087
2.5467017 1.2104458 -0.6577394
2.5658326 1.2166855 -0.65330923
2.594964 1.2155554 -0.64453572
2.6236293 1.2181896 -0.63690197
2.6523006 1.2119359 -0.63345546
2.6839499 1.2164416 -0.63096398
2.7129562 1.2087433 -0.63050079
2.7437532 1.2036499 -0.63015223
1.9437793 1.2378815 -0.65869302
1.9611826 1.2511328 -0.65851003
1.981606 1.2567761 -0.65889597
2.091743 1.2371876 -0.65621817
2.1154213 1.2386283 -0.65177053
2.144443 1.2456914 -0.65076107
2.1766362 1.2414099 -0.64594144
2.2039924 1.2445436 -0.63759506
2.2297843 1.2409122 -0.64007485
2.2631564 1.2440708 -0.64699012
2.2995434 1.2474588 -0.65435457
2.3272657 1.2424791 -0.65700948
2.3571055 1.2470106 -0.64498436
2.3711371 1.2553685 -0.63266242
2.4491105 1.2302027 -0.63636112
2.4771829 1.2388752 -0.63978606
2.5068877 1.2420828 -0.64598364
2.5345345 1.2447754 -0.65117532
2.5626354 1.2446004 -0.65297145
2.5889087 1.2447857 -0.64471537
2.623425 1.2464217 -0.6361028
2.6531618 1.2436074 -0.6313405
3.7998312 1.2557046 -0.63086033
1.9715233 1.2691556 -0.65850043
1.9925333 1.2757598 -0.65815938
2.012723 1.285722 -0.65751576
2.1199086 1.2603993 -0.65806681
2.1395934 1.2693756 -0.6563223
2.1746893 1.2730292 -0.65344542
2.2070806 1.2710992 -0.64129788
2.2350199 1.2749213 -0.63288301
2.2694082 1.2749529 -0.63684964
2.2948687 1.2742448 -0.6454165
2.3290026 1.2832737 -0.65220135
2.3564463 1.2719588 -0.65525681
2.3837068 1.2772931 -0.64163852
2.5034809 1.2719086 -0.6331628
2.526279 1.280282 -0.63665962
2.5644369 1.272693 -0.64700484
2.5952766 1.2750441 -0.64274108
2.6242125 1.2750983 -0.63507009
1.9966269 1.2988502 -0.65892774
2.023232 1.3073846 -0.6580714
2.186373 1.298393 -0.65906841
2.2080686 1.3008715 -0.65524322
2.2352684 1.3020612 -0.6419155
2.2626622 1.306802 -0.63310528
2.2960646 1.3047227 -0.63418841
2.3244259 1.3040013 -0.64246523
2.355557 1.3016983 -0.65160644
2.3913898 1.3010321 -0.64892852
2.4114141 1.3105111 -0.63950682
2.5426159 1.2902753 -0.63678986
2.5664697 1.3019497 -0.6383661
2.597214 1.3049141 -0.64325905
2.6286671 1.3018025 -0.639516
2.6529267 1.3058032 -0.63353932
2.0314782 1.3282062 -0.65841407
2.0529528 1.3370919 -0.65827787
2.0707698 1.3411894 -0.657565
2.2451742 1.3268502 -0.65486097
2.2652264 1.332461 -0.64418262
2.2903628 1.3375951 -0.63633078
2.3268986 1.3352553 -0.6340338
2.3539927 1.3340126 -0.63926202
2.3815374 1.3377998 -0.64564008
2.4151525 1.3329418 -0.64797521
2.434972 1.3421497 -0.63839549
2.5950885 1.3251433 -0.63448
2.6223047 1.3387899 -0.63546675
2.6534474 1.3386766 -0.6422438
2.6837645 1.3380103 -0.63632917
2.0624464 1.3641721 -0.65734428
2.0849118 1.364116 -0.65649086
2.1082146 1.3782492 -0.65676892
2.2784235 1.3533022 -0.65427351
2.3016152 1.3670099 -0.64874905
2.322948 1.3617749 -0.63665992
2.3577878 1.3681941 -0.6359067
2.3933897 1.3702337 -0.6368627
2.4123685 1.3638014 -0.64309907
2.4434643 1.3657047 -0.64013863
2.6592782 1.3593044 -0.63602692
2.691869 1.3697766 -0.63793534
2.717586 1.3701553 -0.63603675
2.7396579 1.3738656 -0.630193
2.0645411 1.3888335 -0.65945524
2.0864892 1.3934377 -0.65460145
2.1168706 1.3979497 -0.65223449
2.1396093 1.4004068 -0.65568042
2.318151 1.3852191 -0.65210646
2.3474488 1.3958757 -0.64448774
2.3893554 1.3917263 -0.63864923
2.4058988 1.3992908 -0.63874805
2.4434931 1.3931102 -0.63811892
2.4671292 1.4007698 -0.63308573
2.7277672 1.3899736 -0.63375103
2.7488186 1.3958635 -0.63120884
2.7802632 1.4080753 -0.63029563
2.090488 1.4267529 -0.65840483
2.1117284 1.4248289 -0.65249687
2.1427698 1.4268178 -0.64998788
2.1710296 1.4340626 -0.65274584
2.361022 1.4194551 -0.65294933
2.3834915 1.4246396 -0.64551538
2.4152534 1.4266279 -0.64278752
2.4450238 1.4239212 -0.64094347
2.4748614 1.4240351 -0.63663983
2.4950993 1.4398744 -0.63396287
2.0985842 1.4443202 -0.65737802
2.1191499 1.4532624 -0.65447134
2.1466861 1.4533031 -0.64924914
2.1752398 1.4617834 -0.64814705
2.2006447 1.4566239 -0.65489632
2.3852041 1.4414608 -0.65512502
2.4143388 1.4529399 -0.64882338
2.442174 1.4518694 -0.64516324
2.4731305 1.4537879 -0.64423764
2.5021515 1.4581649 -0.63820159
2.1446297 1.4805245 -0.65298933
2.1725593 1.4833559 -0.64796919
2.2053757 1.4862187 -0.64840758
2.2339714 1.4886141 -0.65540743
2.442385 1.4742236 -0.65021151
2.4763894 1.4895982 -0.64962775
2.5094528 1.4876696 -0.64719564
2.5334351 1.4901184 -0.63753539
2.1764486 1.5091125 -0.65162235
2.2025673 1.511939 -0.64763093
2.2290201 1.5161428 -0.64821076
2.2544498 1.5130702 -0.65451854
2.477788 1.51254 -0.65695399
2.5083883 1.5208842 -0.65182322
2.5389891 1.5138134 -0.64618331
2.5545268 1.5181322 -0.63692254
2.2078927 1.5369835 -0.65105301
2.2362468 1.5464351 -0.64754403
2.2670326 1.5392855 -0.65156078
2.2913148 1.5458171 -0.65725797
2.5102823 1.5381753 -0.6575793
2.5419872 1.5431993 -0.65119785
2.5658705 1.5462164 -0.64058775
2.5861092 1.5521928 -0.63156998
2.2432337 1.5690401 -0.65020651
2.2702785 1.573158 -0.64740086
2.2930408 1.5772499 -0.64819634
2.3166656 1.5827018 -0.6542182
2.5673354 1.5732191 -0.65019971
2.5948644 1.574239 -0.63750076
2.610853 1.5892087 -0.63544077
2.2662134 1.590928 -0.64990598
2.2906237 1.6042958 -0.64648962
2.3275268 1.611207 -0.64890826
2.3505514 1.6133074 -0.65591908
2.5795751 1.5944608 -0.65605158
2.6018505 1.603351 -0.6483689
2.6264341 1.6068823 -0.63650751
2.3247635 1.6332794 -0.64379269
2.3546429 1.6396326 -0.64705938
2.3832169 1.6483854 -0.65422702
2.6290798 1.6295516 -0.64895248
2.6514165 1.638455 -0.64212918
2.6757989 1.6486213 -0.63425732
2.3594863 1.6587577 -0.64010477
2.3844149 1.6627227 -0.64571041
2.4141281 1.6754223 -0.65307307
2.6627522 1.6606588 -0.6499902
2.683522 1.6665611 -0.6415031
2.7040846 1.6754252 -0.63268983
2.3932183 1.683412 -0.63681036
2.4165044 1.6939194 -0.64037228
2.4441066 1.6955662 -0.65322208
2.4755645 1.6987605 -0.65626478
2.5056605 1.7027209 -0.65752721
2.6802816 1.6840336 -0.65601188
2.7112522 1.6965197 -0.64505577
2.42974 1.7134203 -0.63460207
2.4489594 1.7237523 -0.63737261
2.475795 1.7216027 -0.64813417
2.5058687 1.72325 -0.64929897
2.5368614 1.729901 -0.6517278
2.729342 1.7195472 -0.65223849
2.7416582 1.7205448 -0.64182901
2.7659385 1.7364649 -0.63636881
2.4765859 1.7463677 -0.63578576
2.5034468 1.7539042 -0.64079398
2.5292058 1.7537668 -0.64414006
2.5669827 1.7566395 -0.64842772
2.5851736 1.7680908 -0.64893353
2.7487078 1.7446601 -0.6585921
2.7746804 1.7569916 -0.64782715
2.7931252 1.7644386 -0.63746452
2.5068982 1.7801607 -0.63190162
2.5391939 1.7829428 -0.6386922
2.5601981 1.772541 -0.64348084
2.5962744 1.7884308 -0.64762896
2.6162517 1.7960542 -0.64853692
2.7890608 1.7813228 -0.65908211
2.8055179 1.7846192 -0.64358228
2.8244948 1.7980365 -0.6390993
2.5408831 1.808471 -0.63229442
2.5581949 1.8076253 -0.63596374
2.582689 1.8094668 -0.6410622
2.6297288 1.8224169 -0.6443702
2.6541555 1.8204064 -0.65263385
2.8098614 1.8031993 -0.65595615
2.8347666 1.8167493 -0.64461613
2.8573484 1.8282145 -0.63097203
2.571424 1.8369665 -0.63179243
2.5975871 1.8402621 -0.63713324
2.6188285 1.8358458 -0.64168823
2.6672995 1.8560805 -0.64485812
2.6807501 1.8489151 -0.6499576
2.842257 1.8336411 -0.65137815
2.8611145 1.8476766 -0.64352995
2.6293383 1.8793335 -0.6363318
2.6545947 1.8715444 -0.64176607
2.6951408 1.88831 -0.64322263
2.7127025 1.876667 -0.64971763
2.8748002 1.8700492 -0.64977789
2.8913808 1.8805194 -0.63937503
2.6899898 1.9038357 -0.64169127
2.7058139 1.8905845 -0.64531994
2.7467947 1.9072379 -0.64880246
2.7678916 1.9141848 -0.65065789
2.903012 1.9091505 -0.64595181
2.910641 1.9034806 -0.63159108
2.6855953 1.926562 -0.64008856
2.723614 1.9380357 -0.64102054
2.7350245 1.9308577 -0.64353645
2.7776034 1.9373187 -0.6464172
2.8105378 1.9418846 -0.65502667
2.9069495 1.9255766 -0.64663267
2.9182565 1.9407684 -0.6430282
2.7418418 1.9617281 -0.64114559
2.7685509 1.9657683 -0.64043868
2.8047872 1.9703022 -0.64303857
2.8320208 1.9612526 -0.6513378
2.8548124 1.9667006 -0.65632641
2.9010592 1.9754411 -0.63603139
2.9170985 1.9627901 -0.64379412
2.7735703 1.99604 -0.63937086
2.8040717 2.0006459 -0.63719225
2.8375342 1.9989094 -0.63931745
2.8648961 1.9921052 -0.6401999
2.8939941 1.98605 -0.64518833
2.9177144 1.984796 -0.65320385
2.7834046 2.0142879 -0.63745141
2.8057618 2.0290351 -0.63472307
2.8294995 2.0134509 -0.63312435
2.9526641 -1.7456722 -0.60321802
2.9861064 -1.7546904 -0.60456955
3.0147939 -1.7525495 -0.60989499
3.045819 -1.7543273 -0.60653359
2.8997698 -1.7181931 -0.60776496
2.9252176 -1.7271385 -0.60831189
2.9582016 -1.7278413 -0.6146099
2.989816 -1.7279145 -0.61791509
3.0168967 -1.7235094 -0.61667514
3.0434761 -1.7251489 -0.60767853
2.846122 -1.6845417 -0.61151469
2.8715401 -1.6963634 -0.6108247
2.897047 -1.6940839 -0.61561322
2.9241703 -1.695227 -0.61985528
2.9606535 -1.6957754 -0.62185842
2.9948945 -1.6935602 -0.61907881
3.0224583 -1.6935287 -0.61413622
3.0404584 -1.6966593 -0.60767972
2.8100975 -1.6610094 -0.61171889
2.8431652 -1.6588173 -0.61811209
2.8677926 -1.6676726 -0.61979055
2.8952858 -1.6618862 -0.62331009
2.9306853 -1.6719335 -0.62232488
2.9571025 -1.6640764 -0.62140328
2.9844096 -1.6610574 -0.61651975
3.0162182 -1.6649818 -0.6080547
2.7493212 -1.6261094 -0.61366951
2.7760751 -1.6333698 -0.61478448
2.8072124 -1.6375492 -0.61927235
2.8339901 -1.6344483 -0.62468088
2.8651626 -1.6362531 -0.6251508
2.8965518 -1.6339706 -0.62367302
2.9278095 -1.6364785 -0.62166071
2.9619012 -1.6372411 -0.61898172
2.98141 -1.6311126 -0.61031711
3.0079253 -1.64051 -0.60453737
2.6958923 -1.5954515 -0.61629653
2.719563 -1.6036615 -0.61435193
2.7421756 -1.6005895 -0.61747217
2.7741649 -1.6052485 -0.62220973
2.8080978 -1.6050878 -0.62705189
2.8422341 -1.6009576 -0.62699664
2.8680446 -1.6070259 -0.62534279
2.9024687 -1.6083968 -0.62233382
2.9309366 -1.6049225 -0.61866486
2.9574373 -1.6045046 -0.61251223
2.9794986 -1.6077738 -0.60659701
2.6316593 -1.5612688 -0.62218463
2.6530535 -1.568334 -0.62016153
2.6831195 -1.5755787 -0.61807871
2.7150662 -1.5711194 -0.62199974
2.744416 -1.5754837 -0.62509686
2.7768121 -1.5822747 -0.62758023
2.8069348 -1.5739491 -0.62771881
2.8475928 -1.5734169 -0.62557179
2.8679671 -1.5771508 -0.62479007
2.8959846 -1.5761144 -0.62027657
