ply
format ascii 1.0
comment PCL generated
element vertex 1433
property float x
property float y
property float z
element camera 0
property float view_px
property float view_py
property float view_pz
property float x_axisx
property float x_axisy
property float x_axisz
property float y_axisx
property float y_axisy
property float y_axisz
property float z_axisx
property float z_axisy
property float z_axisz
property float focal
property float scalex
property float scaley
property float centerx
property float centery
property int viewportx
property int viewporty
property float k1
property float k2
end_header
0.88529485 0.40822181 -0.74108177
1.0993307 0.41525671 -0.72193438
1.105444 0.40599966 -0.72358805
0.65138906 0.42404112 -0.72451001
0.84830135 0.42965403 -0.72141761
1.0976226 0.43008929 -0.72441489
1.10114 0.43146461 -0.72689539
0.63282883 0.45768106 -0.7283088
0.64798641 0.44778553 -0.73507529
0.727162 0.45873055 -0.72286558
0.83676392 0.456599 -0.72332054
0.84388155 0.44714627 -0.72480065
1.0926719 0.44368514 -0.7246905
0.63680273 0.46059561 -0.73329461
0.71560335 0.47321296 -0.7211808
0.72352988 0.46579698 -0.72353953
0.82997054 0.46957383 -0.72363776
0.7096262 0.4914782 -0.7260105
0.72008824 0.48579291 -0.7309525
0.82423967 0.49000254 -0.72797227
1.2199012 0.48537469 -0.72216588
0.68972009 0.51296413 -0.72269714
0.70065719 0.50462216 -0.72623515
0.81947631 0.50780481 -0.73220116
0.82240093 0.50965488 -0.73505569
0.92931265 0.51213336 -0.72577864
0.68489891 0.53264064 -0.73005396
0.81359339 0.5322302 -0.7389251
0.91602027 0.53450835 -0.7253831
0.92683768 0.52944511 -0.73042721
0.65315944 0.55453414 -0.72016996
0.66840523 0.54659903 -0.72623515
0.68024278 0.54255027 -0.73230034
0.79410201 0.55138421 -0.73442131
0.80329919 0.54688466 -0.73854446
0.91618371 0.54217362 -0.72835022
1.0378051 0.54950297 -0.72138315
1.1922791 0.55688983 -0.72394443
0.77288628 0.5762412 -0.73220116
0.78599316 0.56748641 -0.73664147
1.0336304 0.56776887 -0.7246905
1.1841884 0.570925 -0.7231822
0.75304782 0.59447086 -0.72839522
0.76678067 0.58644438 -0.73325843
1.0273263 0.58082473 -0.72524172
1.1747305 0.59778905 -0.72521484
1.182874 0.5882957 -0.72699344
0.74538815 0.61105424 -0.73204255
1.1664521 0.60260868 -0.72216588
0.44238949 0.63680381 -0.72261071
0.71965271 0.62392569 -0.72268623
0.72991717 0.62504035 -0.72966385
0.74022216 0.62605232 -0.73664147
0.43885404 0.64858913 -0.73044556
0.44282547 0.64588422 -0.73044556
0.69560981 0.65344244 -0.72427207
0.83299857 0.65076232 -0.72281152
0.97809887 0.65235084 -0.7223019
0.98697978 0.64090681 -0.72303683
0.41385064 0.67524505 -0.73946744
0.42966413 0.66536969 -0.73952687
0.68689764 0.66950941 -0.72823656
0.82516748 0.66111439 -0.72300935
0.95931131 0.67439681 -0.72028071
0.9634313 0.66849792 -0.72028071
0.3788304 0.69898474 -0.74255395
0.39133522 0.69138181 -0.74198419
0.40831983 0.68175173 -0.74219781
0.5120222 0.68791366 -0.72084385
0.65499479 0.69998884 -0.72776085
0.66946042 0.6895684 -0.72979069
0.80388796 0.68559194 -0.72241592
0.95319748 0.68774956 -0.72211814
0.31570759 0.71281487 -0.72688425
0.32936385 0.70815718 -0.7283088
0.34871706 0.704045 -0.7330572
0.36863917 0.7057777 -0.74380046
0.49396095 0.71268797 -0.72960472
0.50787127 0.70468539 -0.7309525
0.63800406 0.71187389 -0.72554076
0.64513284 0.70227396 -0.7236377
0.93264955 0.71286595 -0.72110754
0.94649148 0.70072037 -0.72358805
0.29734772 0.73771858 -0.74291009
0.31209946 0.73503256 -0.74611521
0.46990612 0.73932385 -0.73769164
0.48199424 0.72351933 -0.73162639
0.61162275 0.73516691 -0.72585785
0.62843543 0.72773248 -0.73013961
0.7640202 0.73266006 -0.72389948
0.2775819 0.7547363 -0.75181335
0.28828827 0.74819845 -0.74943918
0.43727428 0.75267398 -0.73263729
0.45382857 0.74906051 -0.73752314
0.47130114 0.74148154 -0.74005032
0.48377609 0.74093449 -0.74577856
0.57436115 0.7588284 -0.72205192
0.58916563 0.74930292 -0.7233206
0.60531759 0.74137115 -0.72649223
0.75552905 0.75171936 -0.72924036
0.76041818 0.7427544 -0.72716337
0.21065228 0.77152044 -0.74736172
0.23000428 0.76762289 -0.74896431
0.24950218 0.7640934 -0.75145721
0.26690304 0.76154757 -0.75466233
0.42852169 0.76995581 -0.74240899
0.56895822 0.77121466 -0.72754937
0.73310882 0.77081436 -0.7277568
0.75048459 0.76523399 -0.7336911
-0.053948089 0.7939133 -0.74326622
0.0094980123 0.79709142 -0.74469072
0.075803638 0.79776239 -0.74896431
0.087672494 0.79300827 -0.74540305
0.14992282 0.79344231 -0.75519657
0.17469148 0.79071128 -0.75751138
0.18891628 0.78615493 -0.75626493
0.20023255 0.78028935 -0.75323784
0.36842498 0.78806078 -0.73216558
0.39004228 0.7835595 -0.73701769
0.41282964 0.78662622 -0.74897963
0.5525189 0.78874606 -0.73135537
0.68864286 0.7991522 -0.72122908
0.70929903 0.7931388 -0.72795463
0.72583264 0.78701365 -0.7328009
-0.047378257 0.80663371 -0.75573075
0.069278397 0.80822253 -0.75893593
0.098811626 0.8037312 -0.75751138
0.33998236 0.81696707 -0.74577856
0.35186309 0.81028759 -0.74443072
0.52877027 0.81185228 -0.73616576
0.54375297 0.80215013 -0.73632431
0.67946136 0.81851327 -0.7277568
0.689188 0.80642134 -0.72558087
0.26729751 0.83889794 -0.7417351
0.2838729 0.83733648 -0.74510461
0.31342292 0.83124912 -0.74897957
0.33057666 0.82266426 -0.74735099
0.51343256 0.83232963 -0.74361908
0.67407304 0.832627 -0.73329544
0.16138195 0.8587718 -0.73566991
0.21678723 0.8594439 -0.7471264
0.22874525 0.85153687 -0.74291438
0.2489574 0.84353787 -0.74089265
0.27178523 0.84105176 -0.74487996
0.29508263 0.84480357 -0.75487638
0.30321679 0.84310055 -0.75588721
0.46761811 0.84854901 -0.7361657
0.49004459 0.84572768 -0.74319619
0.50261223 0.84343755 -0.74679071
0.6303761 0.85638249 -0.72746009
0.64594942 0.84991646 -0.73052615
0.66304785 0.84519804 -0.73547137
-0.12602875 0.87810028 -0.74780029
-0.11793766 0.87922776 -0.74780029
0.1312867 0.87509257 -0.74577856
0.15280814 0.87208098 -0.7462278
0.17118803 0.86703545 -0.74476767
0.18906601 0.87274778 -0.75319159
0.20820796 0.87041599 -0.75498867
0.39765364 0.87397993 -0.72902954
0.40752432 0.86726642 -0.7274437
0.42951533 0.87198991 -0.73875588
0.45294487 0.87196338 -0.74742508
0.61283958 0.87114114 -0.72874588
0.62224036 0.86182183 -0.72716337
-0.11396763 0.89092481 -0.75790894
-0.042286117 0.8905319 -0.75184375
-0.023260532 0.8952924 -0.75555027
-0.0095181214 0.89516753 -0.75521326
0.0014611481 0.89153409 -0.75184375
0.069857083 0.89025521 -0.75319159
0.086397171 0.89030409 -0.75453937
0.11130536 0.89051676 -0.75723505
0.12444188 0.88504171 -0.75386548
0.14330438 0.88143969 -0.75319159
0.36843637 0.89589429 -0.73600715
0.39583147 0.89174461 -0.74171609
0.59492135 0.89735973 -0.73725164
0.6038475 0.88699937 -0.73458123
0.77459991 0.8909117 -0.72551733
0.30602384 0.91527134 -0.73304695
0.3298063 0.91135883 -0.73642999
0.34994677 0.90573913 -0.73791009
0.37136632 0.90302837 -0.74235046
0.38699359 0.90150738 -0.74615639
0.57938218 0.91605902 -0.74259245
0.58821738 0.91136301 -0.74318588
0.7345612 0.91620171 -0.72138315
0.75314981 0.91613674 -0.72910029
0.76846617 0.90607667 -0.73047835
0.26927948 0.93747634 -0.74150467
0.28752697 0.92562383 -0.73648286
0.531353 0.93244427 -0.73472953
0.55315948 0.92399138 -0.73744941
0.5734657 0.9254545 -0.746153
0.71234846 0.93460733 -0.72193438
0.72687376 0.92389834 -0.72220999
0.25520098 0.95448232 -0.75186539
0.49732125 0.95264292 -0.73576808
0.51231432 0.945723 -0.73646039
0.69230348 0.95608282 -0.72542548
0.70083731 0.94328839 -0.72193438
0.1543327 0.97511178 -0.75123101
0.16949597 0.97394031 -0.75234109
0.18974034 0.96673137 -0.74953943
0.20780401 0.9645918 -0.75080806
0.22855015 0.96463823 -0.75461411
0.48785743 0.97059447 -0.74437267
0.6716609 0.97084892 -0.72551733
-0.011719983 0.99451989 -0.7572571
0.0035408523 0.99497384 -0.75757432
0.1496104 0.98444968 -0.75820863
0.43356809 0.99604565 -0.74437273
0.4503589 0.99273872 -0.74719155
0.47088754 0.98921072 -0.75119716
0.6463626 0.99170756 -0.72763038
0.66019332 0.986256 -0.72965151
0.37113693 1.0192186 -0.74318588
0.39076987 1.0147365 -0.74516398
0.40979645 1.0083617 -0.74595523
0.42595172 1.0036942 -0.7473399
0.61110711 1.0105751 -0.72579294
0.6294772 1.0057927 -0.72946781
0.83467919 1.0134388 -0.72216588
0.32850593 1.0280395 -0.73918033
0.3511816 1.0225855 -0.74061441
0.37249675 1.023028 -0.74615306
0.59531862 1.0267125 -0.72965151
0.60984087 1.0298136 -0.7362662
0.80109495 1.035838 -0.72013324
0.29537994 1.0570889 -0.75268072
0.31011215 1.0475368 -0.74892235
0.56910002 1.0547658 -0.73736864
0.58559185 1.046645 -0.73791987
0.78985661 1.0476497 -0.72165775
0.20043465 1.0799494 -0.75327414
0.22960867 1.0714235 -0.75134552
0.2523784 1.065406 -0.75070262
0.27326512 1.0657814 -0.75465888
0.28585035 1.0605444 -0.75327414
0.53135157 1.0779991 -0.73957354
0.54679585 1.0677383 -0.73810363
0.56051803 1.0621887 -0.73902231
0.77423882 1.0741558 -0.72877198
0.7871449 1.0711616 -0.73182094
-0.041116226 1.099233 -0.75446099
0.026330655 1.0980763 -0.75327414
0.069992021 1.0947224 -0.75223565
0.090356231 1.0958755 -0.75416428
0.14754997 1.0911299 -0.75525218
0.17067075 1.0858608 -0.75386757
0.18779443 1.0860171 -0.75604349
0.21105698 1.081609 -0.75594461
0.49130404 1.0968304 -0.73957354
0.50982624 1.0929391 -0.74232966
0.52320802 1.0866134 -0.74232966
0.7279669 1.0926095 -0.72216582
0.74838781 1.0867389 -0.72606182
0.76431686 1.0812458 -0.72877198
-0.051460709 1.1036267 -0.75802159
-0.027722692 1.1031274 -0.75703257
-0.00064159697 1.1064407 -0.75920844
0.012884277 1.1017907 -0.75584573
0.036547028 1.1014025 -0.75594461
0.050149936 1.1028813 -0.75742817
0.10098056 1.1010149 -0.75861502
0.39252597 1.1156139 -0.72689539
0.41160131 1.1149399 -0.73075396
0.42956272 1.1108178 -0.73240763
0.44982386 1.1122346 -0.73819548
0.46945596 1.1114818 -0.74269718
0.48285827 1.1051348 -0.74232966
0.71330017 1.114531 -0.7282638
0.72306108 1.1072023 -0.72775567
0.39244992 1.1377289 -0.74067599
0.40273258 1.1226131 -0.73351008
0.67005754 1.1370549 -0.72623116
0.69039679 1.1315408 -0.72961885
0.70438558 1.1232445 -0.7297883
0.3366155 1.157218 -0.74177843
0.35110906 1.1540504 -0.74251342
0.37195635 1.1463313 -0.74177843
0.38732505 1.1456507 -0.74453455
0.65386713 1.1578302 -0.73207504
0.66256475 1.14841 -0.7297883
0.22788779 1.1783416 -0.73847109
0.29520997 1.1744899 -0.745637
0.30882326 1.1678041 -0.74361587
0.32717827 1.1646829 -0.74481016
0.62837118 1.1707107 -0.73148221
0.64339274 1.1641824 -0.73232913
0.18968129 1.1960696 -0.745637
0.20704979 1.18753 -0.74196219
0.2285942 1.1820061 -0.7409516
0.25167212 1.1839987 -0.74526954
0.27010697 1.1813658 -0.74618822
0.2851685 1.1803961 -0.74784189
0.59798843 1.1919918 -0.73436177
0.61139846 1.1822615 -0.73283726
0.11312408 1.2149452 -0.75170046
0.12805034 1.213727 -0.75188422
0.15452322 1.2141557 -0.75418097
0.16945696 1.2125829 -0.75445658
0.18025492 1.2085 -0.75280291
0.5731498 1.2160444 -0.74071383
0.58765352 1.2081444 -0.74020565
-0.006588622 1.2326981 -0.75996882
0.099197857 1.2287179 -0.75996882
0.10652164 1.2255923 -0.75831515
0.14387298 1.2200905 -0.7572127
0.44446999 1.2353922 -0.72216588
0.54573339 1.2356572 -0.74452502
0.56424332 1.2363148 -0.74935257
0.80707145 1.2328454 -0.72137952
0.40955299 1.2582762 -0.7282638
0.42783141 1.2489868 -0.72648525
0.45884076 1.2512475 -0.73385358
0.47079355 1.2481735 -0.7346158
0.49213508 1.2465409 -0.73825771
0.51312101 1.2434981 -0.74122196
0.53036141 1.2418644 -0.74427092
0.39919227 1.2796568 -0.73842704
0.4119359 1.265626 -0.73283726
0.72907758 1.2784758 -0.72045135
0.74560642 1.2709615 -0.72137952
0.37025592 1.2981815 -0.74401683
0.38887614 1.2882216 -0.74147606
0.71333385 1.2873265 -0.72045135
0.31063819 1.3159292 -0.7452873
0.325827 1.3082571 -0.74300051
0.34738675 1.3089255 -0.74655765
0.36527616 1.311218 -0.75062299
0.38013744 1.3025016 -0.74808216
0.67169678 1.3149986 -0.72300386
0.68654543 1.3043053 -0.72161162
0.21332625 1.3373423 -0.74655771
0.22562422 1.3353291 -0.74655765
0.24306446 1.3383927 -0.7501148
0.28908557 1.3340528 -0.75290966
0.30144379 1.3317629 -0.75316375
0.65866834 1.3398649 -0.73158967
0.6641131 1.3302478 -0.72834098
0.077450998 1.358941 -0.75062299
0.089866757 1.3568753 -0.74986076
0.14845946 1.3556187 -0.75214744
0.16891433 1.3506075 -0.75062293
0.18925872 1.3453088 -0.74909848
0.2015145 1.3426633 -0.74859029
0.23499541 1.3407074 -0.75062299
0.25285363 1.3453423 -0.75519645
0.26995513 1.3452188 -0.75705963
0.63539535 1.3549712 -0.73344606
0.64649326 1.3462652 -0.73182172
-0.031393375 1.3734021 -0.75807601
-0.01029264 1.3727283 -0.75748312
0.0023351344 1.376647 -0.75976986
0.052843027 1.3713249 -0.75722909
0.065138094 1.3638916 -0.75316381
0.10758559 1.3694085 -0.75799131
0.12833999 1.3651576 -0.7565515
0.59649539 1.3691518 -0.73182172
0.61363238 1.362529 -0.73228586
0.6281805 1.3612584 -0.73483837
0.57015753 1.3894353 -0.73623061
0.58428311 1.3873922 -0.73808706
0.55088371 1.4161943 -0.74551255
0.56591696 1.4035915 -0.74226391
0.90874141 1.4029047 -0.72207946
0.43147707 1.4394788 -0.73669475
0.45006943 1.4371582 -0.73839641
0.47327927 1.433738 -0.74040747
0.49369889 1.4362051 -0.74504852
0.51248342 1.4333735 -0.74690485
0.53018957 1.4273913 -0.74713695
0.8740387 1.4247838 -0.72207946
0.39214826 1.4529729 -0.73785496
0.40981957 1.4476275 -0.73762298
0.42362961 1.4455001 -0.73855114
0.82100415 1.4559892 -0.72207946
0.37163845 1.4661099 -0.74179983
0.80887908 1.4658632 -0.72333604
0.27351201 1.4965678 -0.74644077
0.28585723 1.4865854 -0.74249595
0.30955422 1.486495 -0.74489379
0.33325899 1.4857609 -0.74713695
0.35146379 1.48156 -0.74713695
0.79617655 1.4856915 -0.72857165
0.19148214 1.5172933 -0.75061762
0.20960391 1.5113193 -0.74876124
0.22917347 1.5156236 -0.75247401
0.25232577 1.5115047 -0.75224197
0.26753816 1.5165397 -0.75618678
0.78478193 1.508651 -0.73548269
0.1129914 1.5371317 -0.75688291
0.13194877 1.536954 -0.75757909
0.15595733 1.5391628 -0.75989956
0.16953932 1.5323715 -0.75711501
0.18279657 1.5237172 -0.75340223
0.20136571 1.520481 -0.75293815
0.76969492 1.5250545 -0.739043
-0.0051429211 1.5452636 -0.75897139
0.0090732267 1.5447954 -0.75873935
0.028050222 1.5454533 -0.75920343
0.084962875 1.5442581 -0.75966752
0.68750131 1.5593737 -0.73715812
0.71474409 1.5560654 -0.74092782
0.73774785 1.5432881 -0.74009007
0.7499752 1.5444525 -0.74302202
0.76384842 1.5487837 -0.7476294
0.6710248 1.5740819 -0.74036932
0.70150506 1.5650731 -0.74218434
0.73443913 1.5609373 -0.74679172
0.6007024 1.5957935 -0.73757696
0.63365656 1.5937512 -0.74218434
0.64948249 1.5907923 -0.74365032
0.5507645 1.6114482 -0.73659962
0.57031685 1.6040126 -0.73632044
0.58738673 1.6050861 -0.73946178
0.61437547 1.6022552 -0.74260318
0.62880951 1.6103011 -0.74846709
0.47163564 1.6385849 -0.73757696
0.48168093 1.6356601 -0.73757696
0.50967723 1.6376095 -0.74218434
0.52804846 1.6260509 -0.73967123
0.43196753 1.652302 -0.73883355
0.44835302 1.6526277 -0.74092782
0.46255291 1.6449453 -0.73925239
0.49405822 1.640501 -0.74134666
0.329485 1.6738989 -0.7379958
0.35004807 1.6700071 -0.7381354
0.37026885 1.6644223 -0.73757696
0.38679785 1.6662443 -0.74009007
0.40818417 1.6653421 -0.74197495
0.42316231 1.660202 -0.74134666
0.28516233 1.6944408 -0.74365032
0.30586886 1.6903644 -0.74344087
0.32089946 1.6848106 -0.74218434
0.89878237 1.6869211 -0.72118717
0.90867549 1.6805581 -0.72081417
0.92298132 1.6822747 -0.7241714
0.17090377 1.7165926 -0.74679172
0.1920675 1.7152673 -0.74721056
0.20773312 1.7125341 -0.74679172
0.23476803 1.714987 -0.74951422
0.25048238 1.7123119 -0.74930483
0.26552993 1.70544 -0.74721056
0.89026153 1.7087042 -0.72734213
0.081944101 1.7395033 -0.75433105
0.13428745 1.7234958 -0.74846709
0.15065283 1.7280591 -0.75118959
0.21949251 1.7211366 -0.75139904
0.87289917 1.7399957 -0.73536223
0.88229758 1.7321258 -0.73424315
-0.073385321 1.7503289 -0.75914782
-0.0517499 1.7461057 -0.75684416
-0.030387413 1.7502408 -0.75851953
-0.01427462 1.7504545 -0.75851953
0.10878421 1.7407525 -0.75558758
0.12505858 1.7433088 -0.757263
0.85107577 1.7497418 -0.73498917
0.86302698 1.7469832 -0.73610824
0.81156045 1.7638113 -0.73331058
0.83309424 1.7676102 -0.7383464
0.84432453 1.7633022 -0.73871946
0.79058671 1.7900699 -0.73946548
0.80003774 1.7817985 -0.73797339
0.73460859 1.8117585 -0.73871946
0.75321299 1.809622 -0.74077106
0.77110672 1.8056116 -0.74207669
0.78254026 1.8016974 -0.7424497
0.69351935 1.838793 -0.74282277
0.70823836 1.8266975 -0.74039805
0.72553438 1.8214051 -0.74095762
0.56734562 1.85876 -0.73405659
0.59179926 1.8569632 -0.73629475
0.68286657 1.8447545 -0.74356878
0.51740712 1.8795404 -0.73648131
0.53276551 1.8680003 -0.73368359
0.55217773 1.8705883 -0.73685431
0.61190069 1.8607045 -0.74021155
0.63389349 1.8694901 -0.7463665
0.65032196 1.8613919 -0.74543393
0.67073154 1.8644819 -0.74935067
0.47246653 1.8970751 -0.73871946
0.48781502 1.8845527 -0.73536217
0.50682521 1.8862647 -0.73797339
0.41601023 1.9197444 -0.7424497
0.4317044 1.9072304 -0.73890597
0.44915092 1.9027301 -0.73871946
0.46147153 1.9026439 -0.73983854
0.35726255 1.933427 -0.74319577
0.36911911 1.9311985 -0.74319577
0.38679194 1.927254 -0.74300927
0.40517446 1.9268013 -0.74431485
0.14178015 1.9582485 -0.74207669
0.19006234 1.9569498 -0.74319577
0.27340069 1.9433086 -0.74170363
0.29960516 1.9554 -0.74804509
0.31188864 1.9553574 -0.74879116
0.32857764 1.9446151 -0.74562043
0.34831452 1.9520259 -0.74991024
0.1553773 1.9776921 -0.7502833
0.16626631 1.9619086 -0.74431485
0.20918468 1.9657195 -0.74748558
0.23371819 1.966691 -0.74897766
0.25246552 1.9695266 -0.75102931
0.26393077 1.9633423 -0.74916416
0.28827259 1.9617918 -0.74991024
-0.039370645 1.9908197 -0.75326747
-0.01498298 1.9967196 -0.75550562
0.058627017 1.9996278 -0.75699776
0.070895404 1.9992305 -0.75699776
0.089033633 1.992923 -0.75475955
0.11353813 1.9926066 -0.75513262
0.13139954 1.9840791 -0.75214839
0.18013507 1.9811809 -0.75252146
-0.027327524 2.0030842 -0.75811684
0.034129549 2.0029798 -0.75811684
0.046398118 2.0018051 -0.75774378
0.69103867 2.1394329 -0.730726
0.65126824 2.1508853 -0.73039955
0.66724265 2.15588 -0.73366392
0.68102723 2.153548 -0.73431677
0.61413378 2.1716056 -0.73366392
0.64502138 2.1784096 -0.73888689
0.56806743 2.1870275 -0.73464322
0.588175 2.1817169 -0.73464322
0.60305715 2.1835344 -0.73660183
0.63190496 2.1832345 -0.73921335
0.44723558 2.2187545 -0.73594892
0.466858 2.2108555 -0.73464322
0.48921353 2.2156863 -0.73790759
0.50937897 2.2101784 -0.73758113
0.5295769 2.2049289 -0.73741794
0.55111802 2.2050138 -0.73921335
0.40725136 2.2317252 -0.73774439
0.4269726 2.223716 -0.73627537
0.34813207 2.2594135 -0.74378341
0.37474853 2.2484441 -0.74149835
0.38998261 2.2544856 -0.74443632
0.33495021 2.2661827 -0.74541563
0.36243632 2.260035 -0.74476272
0.19671649 2.2984684 -0.750965
0.22463265 2.2930591 -0.74998569
0.25358009 2.2976465 -0.75259721
0.29498649 2.286027 -0.75031215
0.31001696 2.2916679 -0.75292367
0.32380873 2.2878506 -0.75227076
0.1690437 2.3082514 -0.75357652
0.1833522 2.3090551 -0.75422937
0.23967196 2.3010395 -0.75325006
0.26952451 2.3120091 -0.75814664
0.28313243 2.3056204 -0.75651443
0.71591949 2.529871 -0.72028476
0.73516208 2.5383451 -0.72419363
0.68831486 2.5514469 -0.72419363
0.70421261 2.5481012 -0.72447282
0.65981156 2.570864 -0.72754413
0.67630541 2.5695534 -0.72838175
0.43365464 2.5990498 -0.72195995
0.51354897 2.5864084 -0.72251838
0.54921073 2.5987034 -0.72810256
0.56473809 2.5934079 -0.72754413
0.58867955 2.5885577 -0.72768372
0.61348385 2.5872457 -0.72894013
0.62912059 2.5824995 -0.72866094
0.64565217 2.5813859 -0.72949857
0.53363961 2.6039059 -0.72866094
0.40698001 2.6383429 -0.73201144
0.37484133 2.64504 -0.73256987
0.39232457 2.6512399 -0.73508275
0.42407122 2.641485 -0.73368669
0.36219993 2.6739352 -0.74038768
0.18148208 2.6989818 -0.74234211
0.21481612 2.6994231 -0.74317974
0.24810088 2.6984961 -0.74373817
0.26316121 2.681632 -0.73927081
-0.00097352115 2.7194796 -0.74653023
0.01569267 2.7155936 -0.74541336
0.032201614 2.7020037 -0.74150449
0.048881251 2.7075157 -0.74317974
0.065334201 2.7004452 -0.7412253
0.090457574 2.7083545 -0.74373817
0.19936569 2.7160134 -0.74764705
0.23292501 2.7162328 -0.74848467
-0.034597948 2.7384658 -0.75211436
-0.017740598 2.7309449 -0.74988073
0.11652429 2.7342823 -0.75155598
0.13302162 2.727761 -0.74988073
0.14959984 2.7240169 -0.74904311
0.16613711 2.7201724 -0.74820548
-0.051603772 2.7487626 -0.75518566
-0.068859234 2.7637529 -0.75965297
0.70196503 3.1284525 -0.72007936
0.72202122 3.1278784 -0.7210052
0.74276948 3.1300159 -0.72262543
0.7615009 3.1235089 -0.72216249
1.9288212 -2.3495822 -0.68049949
1.9500461 -2.3459291 -0.68304557
1.9706715 -2.3413599 -0.68536019
1.994471 -2.3403263 -0.6888321
2.0030706 -2.321418 -0.68674898
2.0301323 -2.3094406 -0.6888321
1.3068924 -2.2725503 -0.71805108
2.0344224 -2.2718394 -0.68281412
1.3494899 -2.2497561 -0.71860951
1.3652664 -2.244714 -0.71972632
2.1468661 -2.1727369 -0.68397146
2.163599 -2.1629605 -0.68512875
2.1740599 -2.1469114 -0.68420291
2.2011261 -2.1471109 -0.6888321
1.5222315 -2.131947 -0.71749264
2.2093532 -2.1288419 -0.68721187
1.5307788 -2.1163449 -0.71525902
2.220964 -2.1139045 -0.68674898
2.2253838 -2.0922446 -0.68397146
1.5932165 -2.0661123 -0.71442139
1.6034983 -2.0532718 -0.71330458
1.60653 -2.0313487 -0.70883721
1.63209 -2.0250564 -0.71204811
1.6491365 -2.0081093 -0.71135008
1.6700187 -1.9957714 -0.71246696
1.6789629 -1.9693795 -0.70827883
1.6834813 -1.9503219 -0.70492834
1.6884615 -1.932006 -0.70185703
1.709198 -1.9316726 -0.70576596
1.7069143 -1.9054215 -0.69962341
1.7250284 -1.9020215 -0.70241547
1.7386159 -1.8935219 -0.70325309
1.7580513 -1.8912538 -0.70660359
1.747894 -1.8573664 -0.69738972
1.7678732 -1.8556399 -0.70101941
1.774557 -1.8399221 -0.69906497
1.7844708 -1.8276255 -0.69850653
1.7888973 -1.8098162 -0.69571447
1.7952114 -1.794057 -0.69376004
1.8068695 -1.7836822 -0.69403923
1.329088 -1.7674369 -0.71799499
1.8095258 -1.7645218 -0.69068873
1.3404809 -1.76 -0.71832144
1.3602308 -1.7411842 -0.71734214
1.8210106 -1.7540513 -0.69096798
1.3726497 -1.735028 -0.71832144
1.3803124 -1.7228864 -0.71668923
1.8314803 -1.7319379 -0.68873429
1.389666 -1.7129172 -0.71603638
1.4055543 -1.710928 -0.71897429
1.8543621 -1.7109582 -0.68943238
1.4117913 -1.6971874 -0.71668923
1.424616 -1.6913831 -0.71799499
1.8661264 -1.6902802 -0.68789667
1.8821905 -1.6839168 -0.69013035
1.4294431 -1.6761408 -0.71505708
1.4494653 -1.6682456 -0.71750534
1.8910476 -1.6710653 -0.68957192
1.9019892 -1.6600616 -0.68985116
1.4581724 -1.6474233 -0.71407777
1.4783535 -1.6497016 -0.71930075
1.9099565 -1.6464803 -0.68901354
1.9185601 -1.6334859 -0.6884551
1.9300175 -1.6229182 -0.68901354
1.4681101 -1.6182108 -0.70885479
1.5158006 -1.6101727 -0.71799499
1.9347658 -1.6067538 -0.68705904
1.4852811 -1.5973059 -0.70754904
1.5236943 -1.5987902 -0.71701568
1.9490879 -1.5885715 -0.68691945
1.518371 -1.5737751 -0.70950764
1.5372512 -1.5738897 -0.71407777
1.9557608 -1.564276 -0.6839878
1.5262641 -1.5436046 -0.70395821
1.9730923 -1.5485672 -0.68510461
1.5336993 -1.5322077 -0.70297891
1.5423987 -1.5221049 -0.70265251
1.9773726 -1.5227427 -0.68147492
1.5571272 -1.517887 -0.70526397
1.5670928 -1.5089593 -0.70559043
1.9989139 -1.5198734 -0.68594223
2.0051291 -1.5052755 -0.68482542
1.5680984 -1.4915035 -0.70167321
1.5861814 -1.4902618 -0.70591688
2.0042946 -1.4855164 -0.68119574
1.5932133 -1.4695144 -0.70281571
1.6128831 -1.4514332 -0.70363182
2.0192585 -1.4585615 -0.68007886
1.6337798 -1.4343257 -0.70510077
1.6494242 -1.4213961 -0.70624328
1.6480319 -1.4026783 -0.70167321
1.3075172 -1.3866006 -0.71894902
1.6544358 -1.3907164 -0.70069385
1.6673038 -1.3841586 -0.70265251
1.3244344 -1.3704509 -0.71894902
1.6772281 -1.3750998 -0.70330536
1.695924 -1.373103 -0.70787549
1.70284 -1.3614917 -0.70722258
1.333077 -1.3542323 -0.71671087
1.3454909 -1.341912 -0.71671087
1.7216568 -1.3422347 -0.70820189
1.3551264 -1.3268688 -0.71521878
1.6955749 -1.3387272 -0.70036745
1.3696338 -1.3085332 -0.71428621
1.7110174 -1.3088286 -0.69824558
1.385242 -1.2913184 -0.71409971
1.7254337 -1.2866042 -0.69759274
1.3968534 -1.2704899 -0.71186149
1.7398844 -1.2726231 -0.69873524
1.7530271 -1.2657932 -0.7010203
1.3995004 -1.2495488 -0.70701218
1.4154972 -1.2482959 -0.71148849
1.4245301 -1.2408049 -0.71223456
1.7430495 -1.242406 -0.69351226
1.7661082 -1.2425554 -0.700041
1.4285977 -1.229018 -0.71036941
1.4355786 -1.212232 -0.70813131
1.7509964 -1.2080097 -0.68894219
1.1688931 -1.18592 -0.7191475
1.4499944 -1.1942216 -0.70794475
1.7690983 -1.19661 -0.69188011
1.7882049 -1.1935962 -0.69677663
1.1882517 -1.1691247 -0.71998519
1.458405 -1.1787907 -0.70663917
1.4685129 -1.1721328 -0.70813125
1.7880344 -1.1698344 -0.6922065
1.8122603 -1.162008 -0.69775593
1.1937346 -1.1530828 -0.71663439
1.2095702 -1.1470548 -0.71998519
1.4726521 -1.1534202 -0.70477402
1.8129629 -1.1468281 -0.69514447
1.2180693 -1.1340199 -0.71872866
1.2257831 -1.1203121 -0.71705323
1.4866972 -1.1352594 -0.70477402
1.8031189 -1.1251849 -0.68828928
1.8204576 -1.1205343 -0.69253296
1.2346579 -1.1145934 -0.71830982
1.4889171 -1.1154206 -0.70067072
1.5092026 -1.1090866 -0.7057066
1.8256822 -1.108363 -0.69188011
1.2495487 -1.0937302 -0.71705323
1.500159 -1.0813221 -0.69619441
1.5211372 -1.082306 -0.70328194
1.8357929 -1.0915153 -0.69188011
1.2542441 -1.0709436 -0.71181762
1.2671851 -1.0619845 -0.71370244
1.521672 -1.0686908 -0.70029771
1.8531481 -1.0712577 -0.69351232
1.2712924 -1.0456535 -0.71035159
1.5182827 -1.0524698 -0.69544834
1.5323734 -1.048367 -0.69917864
1.8629366 -1.0541639 -0.69351226
1.2766191 -1.0305035 -0.70783854
1.2942407 -1.0251746 -0.71265531
1.5372386 -1.0379077 -0.69843256
1.540488 -1.0264003 -0.69694048
1.8586346 -1.0367345 -0.68926859
1.8715895 -1.0289493 -0.69188011
1.3038404 -1.0070063 -0.71097994
1.5312437 -1.0067464 -0.68947995
1.5521888 -1.0069146 -0.69656742
1.8720483 -1.0142978 -0.68959504
1.3099304 -0.986292 -0.70741963
1.5599016 -0.99837065 -0.69731349
1.5691377 -0.99075949 -0.69880557
1.5822786 -0.98552215 -0.70216286
1.8682274 -0.99745643 -0.68567783
1.8851911 -0.99168801 -0.6899215
1.9013146 -0.98531443 -0.69383872
1.3280796 -0.96838611 -0.70923471
1.5896869 -0.96995246 -0.70141679
1.8862708 -0.96289951 -0.68567783
1.1161089 -0.95048445 -0.7174347
1.3458769 -0.95009291 -0.71097994
1.5977604 -0.9548046 -0.70104373
1.6003901 -0.94310117 -0.69955164
1.8929882 -0.95173144 -0.68600428
1.126335 -0.92976886 -0.71457273
1.3551919 -0.93195915 -0.70972335
1.3663529 -0.921229 -0.71118933
1.6133699 -0.93745339 -0.70290887
1.8931671 -0.93011224 -0.68273985
1.9255296 -0.92407787 -0.69188011
0.92985898 -0.91051942 -0.71539038
0.9443028 -0.90221679 -0.71810055
1.1378155 -0.91027641 -0.71279371
1.1527792 -0.90495402 -0.71720266
1.1611128 -0.90003151 -0.71905905
1.3713586 -0.90635657 -0.70930445
1.6025527 -0.91157532 -0.69395626
1.9311634 -0.91224563 -0.69188011
0.95107502 -0.89758652 -0.71911693
1.1713629 -0.88518178 -0.71859497
1.3835217 -0.89019918 -0.70993274
1.6091535 -0.88936961 -0.69190454
1.9264358 -0.89560407 -0.68796289
1.9456519 -0.89004916 -0.69318587
1.1746408 -0.87639081 -0.71720266
1.1830051 -0.86580527 -0.7174347
1.3935686 -0.87267768 -0.7095139
1.6166751 -0.86780316 -0.69041252
1.9338325 -0.87034684 -0.68665713
1.947782 -0.86228532 -0.6899215
1.1866888 -0.84633803 -0.71302581
1.3938067 -0.85507238 -0.70532542
1.4029137 -0.84885103 -0.70741963
1.6135086 -0.84707355 -0.68537664
1.633516 -0.84481788 -0.69209111
1.9504355 -0.84918749 -0.68894219
1.1980655 -0.83791882 -0.71534628
1.2122986 -0.831357 -0.71952313
1.4032342 -0.83150911 -0.70344055
1.6345336 -0.83267629 -0.69022596
1.6437602 -0.82470846 -0.69209111
1.9503267 -0.8278774 -0.68600428
1.014868 -0.81517851 -0.71555978
1.0281885 -0.80531454 -0.71810055
1.2162282 -0.8176983 -0.71720266
1.220484 -0.8097313 -0.71673858
1.411368 -0.81308913 -0.70239341
1.4227524 -0.8023001 -0.70448768
1.6396359 -0.81009328 -0.6879878
1.662938 -0.80893236 -0.69619441
1.9526308 -0.80773145 -0.68404561
1.0335046 -0.79423726 -0.7165761
1.0400842 -0.78418171 -0.71606791
1.2156104 -0.79051751 -0.70908093
1.423678 -0.79135281 -0.70239341
1.6584671 -0.7817505 -0.68985295
1.6611732 -0.7955128 -0.69321018
1.9533952 -0.78707826 -0.68159735
1.0506527 -0.77210641 -0.71683013
1.2154865 -0.76938725 -0.70304769
1.4249082 -0.77496517 -0.69925201
1.6632326 -0.7715596 -0.68985295
1.9645271 -0.77061927 -0.68306631
0.74461627 -0.74386227 -0.7194488
1.0687647 -0.75061905 -0.71810055
1.2183841 -0.75559974 -0.70049518
1.2264196 -0.74503565 -0.70119131
1.4242697 -0.7521283 -0.6940164
1.6578034 -0.75672424 -0.68537664
1.6689351 -0.74330187 -0.68724179
1.9665718 -0.75753307 -0.682087
0.74537194 -0.73107868 -0.71321785
1.07434 -0.73501754 -0.71555972
1.0803502 -0.72462076 -0.71505159
1.2374178 -0.73621011 -0.70374382
1.2487319 -0.72745484 -0.70652843
1.4253049 -0.73046446 -0.68982792
1.6842206 -0.7316165 -0.69097203
1.7108698 -0.7307269 -0.70067072
1.0898671 -0.71177274 -0.71555978
1.1014447 -0.70019543 -0.71759242
1.2561487 -0.71637475 -0.70699251
1.2630692 -0.70499647 -0.70722455
1.4329444 -0.71230727 -0.68919957
1.6776683 -0.70443976 -0.68425757
1.110032 -0.69138861 -0.71911693
1.2642257 -0.68543673 -0.70281565
1.4390372 -0.69889522 -0.68899018
1.4495046 -0.68756247 -0.69108444
1.6896505 -0.6912595 -0.68668222
0.96500403 -0.66328406 -0.71917826
1.1212504 -0.67472661 -0.71962506
1.2721467 -0.6696713 -0.70258355
1.4566036 -0.67457396 -0.69150329
1.4607154 -0.66562372 -0.69150329
1.6970438 -0.6640678 -0.68537664
1.7067324 -0.67995179 -0.69134504
0.96794474 -0.65228033 -0.71669775
1.2778701 -0.65773159 -0.70235157
1.2858458 -0.64692664 -0.70351183
1.4709232 -0.65398926 -0.69359756
1.4860547 -0.64439225 -0.69820493
1.7048085 -0.64908171 -0.68612266
1.299304 -0.63877863 -0.70792073
1.3035243 -0.62602484 -0.70699251
1.4860618 -0.62820721 -0.69527292
1.7152622 -0.62906051 -0.68724179
1.1552327 -0.61100459 -0.71860874
1.3070886 -0.60812229 -0.70467198
1.4859052 -0.61209804 -0.69234103
1.5031053 -0.60840845 -0.69904262
1.7148669 -0.61107731 -0.68463057
1.1655258 -0.58924526 -0.71810055
1.3144572 -0.59202659 -0.70467198
1.3222884 -0.58097774 -0.70606434
1.4934253 -0.5885585 -0.69150329
1.7168318 -0.59993279 -0.6838845
1.017732 -0.56948709 -0.71605468
1.1721089 -0.57018012 -0.7165761
1.3239083 -0.56721318 -0.70397592
1.5107697 -0.56876087 -0.69569182
1.0290561 -0.55525124 -0.71807581
1.1723938 -0.55263638 -0.71225667
1.3295406 -0.55041838 -0.70327973
1.5185028 -0.55050993 -0.69611067
1.5227079 -0.54148573 -0.69652951
0.77069473 -0.53291601 -0.70999968
1.1763474 -0.53695071 -0.71047813
1.186787 -0.52421492 -0.71301895
1.3287853 -0.53112036 -0.69910288
1.5157095 -0.52855361 -0.69150329
0.6880613 -0.50561011 -0.71747428
1.1927319 -0.50944912 -0.71276486
1.2017535 -0.50026155 -0.71555978
1.3320831 -0.50886297 -0.69647294
1.5118972 -0.51168066 -0.68731475
1.0641273 -0.48063132 -0.71697336
1.1990075 -0.48195344 -0.70997
1.2008128 -0.49125242 -0.71301895
1.346956 -0.49099985 -0.70049512
1.0620036 -0.46797186 -0.71228796
1.1989713 -0.46918064 -0.70717508
1.3526382 -0.46971574 -0.69956702
1.0721585 -0.44903842 -0.71352822
1.2039992 -0.4499813 -0.70590466
1.352437 -0.45112088 -0.69631827
0.95801502 -0.42408624 -0.71588826
1.2042783 -0.42915237 -0.70183933
1.3265427 -0.43348953 -0.68053901
1.2053802 -0.41294587 -0.69929862
1.1030111 -0.38431975 -0.71724898
1.1968306 -0.38963076 -0.69015163
1.2013083 -0.39110196 -0.69294655
0.76411498 -0.36589688 -0.71140909
1.2096587 -0.37337422 -0.694471
1.2208921 -0.36455971 -0.69929856
0.77338791 -0.35296601 -0.71410477
1.1120003 -0.35333654 -0.71642214
1.2310578 -0.35119268 -0.70285565
1.1154686 -0.33942473 -0.71587092
1.1233444 -0.33054918 -0.71917826
1.2375574 -0.33260563 -0.70361793
1.2418233 -0.32152393 -0.70438021
1.2381461 -0.30441886 -0.69980675
1.2429374 -0.31368843 -0.70387203
0.71370327 -0.29027519 -0.7176249
0.79845345 -0.29836369 -0.7161265
0.80344605 -0.28904039 -0.71747428
1.2366393 -0.296018 -0.69777405
1.2409495 -0.28900763 -0.69929856
1.2345701 -0.27161205 -0.69337004
0.72141635 -0.2455129 -0.70907784
1.2324842 -0.25533941 -0.69015163
1.2457639 -0.24613595 -0.69675773
0.72671556 -0.23738772 -0.71157074
1.2505213 -0.23514058 -0.69828224
1.2644994 -0.22572242 -0.70539653
1.2726986 -0.21109372 -0.70869958
1.2773213 -0.19578752 -0.70997
1.2858958 -0.18499979 -0.71403527
1.2826444 -0.16849792 -0.71081692
0.74639559 -0.14829655 -0.70800936
1.2781262 -0.14403649 -0.70641285
1.2832059 -0.15258107 -0.70997
1.3950553 -0.14580834 -0.68425179
0.74617964 -0.13637257 -0.70551652
0.93798304 -0.12501346 -0.71761161
1.2766395 -0.12802279 -0.70454961
1.4064435 -0.12955621 -0.6893568
0.84675384 -0.10591829 -0.71702504
1.2927676 -0.10961955 -0.71301895
1.41641 -0.11734512 -0.6939978
1.4240499 -0.10477455 -0.69747853
1.0465041 -0.09605974 -0.71826196
1.4137325 -0.086626351 -0.69144523
1.0497006 -0.076895945 -0.7194488
1.4146904 -0.069244012 -0.69144529
1.3070604 -0.042407647 -0.71911693
1.4256134 -0.05224501 -0.69678235
0.85108358 -0.030205749 -0.71545255
1.3066212 -0.026348444 -0.71860874
1.4303688 -0.030449158 -0.6989482
0.85372758 -0.014570901 -0.71747434
1.4433749 -0.0085701067 -0.70560026
1.0491574 0.016616963 -0.71707511
1.4535576 0.0092056235 -0.71093738
0.75754946 0.030410616 -0.70516038
0.7631883 0.03064795 -0.71085846
0.85249245 0.032536559 -0.71680045
1.0480695 0.02947899 -0.71648169
1.166738 0.027622601 -0.7166059
1.4568775 0.027114559 -0.71279371
0.76928878 0.042741813 -0.7176249
0.83810425 0.04742831 -0.70433307
0.84655547 0.047900036 -0.71208298
0.93829966 0.051314212 -0.71221983
0.9468447 0.043060381 -0.7188803
1.1567376 0.04514626 -0.71035868
1.1621116 0.056082748 -0.71421725
1.4496397 0.049222033 -0.70931298
0.76971316 0.066505551 -0.71976167
0.83704078 0.068004735 -0.70467001
0.94420576 0.06619098 -0.71782303
1.1463319 0.069407336 -0.70429522
1.4482828 0.071437642 -0.70908093
0.83171648 0.085588664 -0.70130044
0.84182239 0.091876283 -0.71107215
1.0454926 0.09379299 -0.71737182
1.1465225 0.090641439 -0.70539767
1.3032045 0.08579573 -0.71810055
1.4542025 0.085158385 -0.71256167
1.4624914 0.09466064 -0.71720266
1.5808451 0.090452418 -0.68145084
0.84386235 0.11049245 -0.7149471
1.0403885 0.11267218 -0.71499813
1.1482571 0.11209432 -0.70778632
1.289474 0.11273305 -0.71124041
1.3020536 0.10178159 -0.71810055
1.4615514 0.10811653 -0.71720266
1.5820727 0.10026711 -0.68228859
0.83487821 0.13020429 -0.70938742
1.0377293 0.12528311 -0.71410793
1.0413251 0.13545963 -0.71766853
1.1506964 0.13016754 -0.71063429
1.2794851 0.13959675 -0.70692098
1.2841368 0.12816556 -0.70895362
1.4485363 0.12950049 -0.71132416
1.5875823 0.12510243 -0.68563938
0.74892038 0.15875508 -0.71263909
0.83653259 0.15159705 -0.71410477
0.84080756 0.14440033 -0.71680039
1.0404744 0.14184654 -0.71766853
1.1503476 0.14803791 -0.71182865
1.2738637 0.15085998 -0.70438021
1.4368477 0.15069917 -0.70629632
1.5899844 0.1498643 -0.68773365
0.74873161 0.16834623 -0.7145384
0.84090894 0.16041192 -0.71949607
1.0354886 0.17693406 -0.71796525
1.1435786 0.16860038 -0.70925623
1.2696819 0.17015715 -0.7033639
1.4348896 0.16832554 -0.70629638
1.5816444 0.17358837 -0.68501115
0.74937391 0.18793623 -0.71976167
1.0304033 0.19237459 -0.71628386
1.1421984 0.18996181 -0.71054244
1.2699151 0.19005069 -0.70514244
1.4296414 0.18997175 -0.70498151
1.573987 0.19232434 -0.68249798
0.82948989 0.21167521 -0.71949607
0.91561484 0.21984798 -0.71380562
0.92146146 0.21528886 -0.71761161
1.0184281 0.21286032 -0.71054739
1.0227163 0.20395474 -0.71232766
1.1330379 0.20994656 -0.70686764
1.2570863 0.20788257 -0.69929856
1.2621572 0.20874342 -0.70234752
1.4145967 0.21009785 -0.6986388
1.5710588 0.21156272 -0.68228859
1.7999159 0.20196705 -0.68090034
0.821913 0.23136333 -0.71747428
0.91133803 0.23068404 -0.71253699
1.0182586 0.23247668 -0.71351457
1.0242912 0.22395682 -0.71648169
1.1292609 0.23078914 -0.70705134
1.2569822 0.23172008 -0.70166993
1.4140995 0.22778636 -0.699799
1.5710393 0.23122245 -0.68354511
1.7954607 0.2238086 -0.68015426
0.81565815 0.24863377 -0.71646345
0.90988827 0.2512331 -0.71570861
1.0180724 0.24894264 -0.71618497
1.0200497 0.24941143 -0.71766853
1.1267152 0.25198844 -0.70833755
1.2586366 0.25205496 -0.70488834
1.4143516 0.25015017 -0.70188743
1.5743594 0.25149241 -0.68647707
0.72007865 0.27799994 -0.71904945
0.8149488 0.26214179 -0.71949607
0.8968932 0.26848152 -0.70936537
1.0120684 0.27394664 -0.71648169
1.1148595 0.27097768 -0.70356029
1.2481641 0.26990914 -0.70099241
1.3895581 0.27663448 -0.69167733
1.4033604 0.2660071 -0.69771057
1.5666807 0.27002084 -0.6843828
0.71520263 0.28370816 -0.71655655
0.80155641 0.2963773 -0.71814823
0.89709294 0.28362703 -0.7131713
1.008453 0.2907553 -0.71727294
1.11812 0.28999767 -0.70870501
1.2367136 0.29938903 -0.69828224
1.2436049 0.28896964 -0.70082307
1.3847573 0.2933982 -0.69098115
1.5587933 0.29334441 -0.68270743
1.5623504 0.28410083 -0.68354511
0.79311752 0.30713844 -0.71444172
0.9960897 0.30604422 -0.71173424
1.1168904 0.30436066 -0.71035868
1.1228784 0.31712759 -0.71642214
1.2380726 0.31182164 -0.70082307
1.3781126 0.30527267 -0.68889272
1.3865745 0.31609619 -0.69446188
1.5560212 0.30767182 -0.68270743
0.6984185 0.32533619 -0.7176249
0.99224544 0.33283517 -0.71509701
1.0920893 0.33021864 -0.6993342
1.1120977 0.32145119 -0.71035868
1.2317123 0.33442777 -0.70056897
1.2409889 0.32473025 -0.70438021
1.3891979 0.33018935 -0.69747853
1.5476847 0.32581228 -0.68061316
0.97576535 0.35644135 -0.70936054
0.98506832 0.34959745 -0.71410799
1.0903226 0.35172531 -0.70245785
1.2304113 0.35035545 -0.70234752
1.394063 0.34947371 -0.70235157
1.5475562 0.34567869 -0.68249798
0.97843957 0.37454975 -0.71588826
0.98034489 0.36495942 -0.71470141
1.092175 0.37093446 -0.70760256
1.2270805 0.36985192 -0.70370263
1.3909514 0.36690408 -0.70304769
1.5457402 0.37024948 -0.6842432
0.95510244 0.39615321 -0.7058
0.97357863 0.38988337 -0.71667951
1.0973624 0.39157394 -0.71531969
1.102106 0.38566312 -0.71697336
1.230157 0.39148331 -0.70920771
1.3904066 0.38967466 -0.70590955
1.5449134 0.39016381 -0.68605822
0.94966573 0.40762341 -0.70540434
1.2317576 0.41289687 -0.71403533
1.3782128 0.41374812 -0.70327973
1.384974 0.40653551 -0.7056002
1.5374701 0.41853452 -0.68605822
1.5434461 0.40493843 -0.68710536
0.72955096 0.42948738 -0.71086997
0.74558127 0.42067614 -0.71949607
0.94468802 0.42625698 -0.70758027
1.2190959 0.433772 -0.71098632
1.2233603 0.42685294 -0.71200264
1.3682343 0.42909312 -0.70064992
1.538371 0.42893907 -0.68773365
1.5400748 0.43962044 -0.68982792
0.71701443 0.44007897 -0.70601785
0.72620404 0.45191053 -0.71882212
0.94370729 0.44691709 -0.71331668
1.0707583 0.45402861 -0.71394163
1.0806805 0.44654551 -0.71807581
1.2098964 0.44729909 -0.70861483
1.3528082 0.447171 -0.69585419
1.5425768 0.45059422 -0.69234103
0.61477387 0.46208641 -0.71620041
0.93628341 0.4718844 -0.71648169
0.94201982 0.46035612 -0.71648169
1.0596294 0.4763968 -0.7131148
1.0689274 0.46880782 -0.71669775
1.2142739 0.47023106 -0.71581388
1.3544163 0.47089574 -0.70064992
1.532006 0.47312862 -0.6906656
1.5406528 0.46031153 -0.69275987
0.69472075 0.49387434 -0.7161265
0.9283936 0.48952869 -0.71727294
1.0578399 0.49130037 -0.71614653
1.0605099 0.49253622 -0.71807581
1.2082075 0.49363211 -0.71759242
1.3641003 0.49311393 -0.70931304
1.5260863 0.49188778 -0.6906656
1.0383871 0.51359242 -0.7109099
1.0479434 0.50638068 -0.71449286
1.1910081 0.5123772 -0.71251076
1.2028217 0.50440693 -0.71708423
1.3653078 0.50781035 -0.71256173
1.4988792 0.51889187 -0.68270743
1.5113308 0.50767624 -0.68647707
0.89973843 0.53989655 -0.71707511
1.0332273 0.52693069 -0.71182865
1.1873786 0.52819335 -0.71428937
1.3536718 0.53203678 -0.71140146
1.3630627 0.52131158 -0.71395397
1.4948111 0.52777594 -0.68228859
0.6520282 0.54670936 -0.71477866
0.66154301 0.5410111 -0.71814823
0.89303756 0.55088454 -0.71707511
1.1899161 0.54249865 -0.71911693
1.3326077 0.55227244 -0.70513612
1.3442048 0.54265612 -0.70884889
1.4882219 0.54607987 -0.68228859
0.63841492 0.56254631 -0.71477866
0.85745972 0.57352692 -0.70401967
0.8704927 0.56690711 -0.70936054
0.88485944 0.5609507 -0.71588826
1.3177469 0.57476926 -0.70258355
1.3266555 0.56417924 -0.70467204
1.7208202 0.57095665 -0.68164635
0.85101271 0.58833116 -0.70624506
0.98794621 0.5909757 -0.70613265
1.0071393 0.58166635 -0.71394163
1.2894354 0.59567314 -0.69353372
1.3069663 0.58924603 -0.70049512
0.84465551 0.61115974 -0.71212983
0.98703671 0.6112088 -0.71256357
1.1490808 0.61159158 -0.71555978
1.2988098 0.61947674 -0.70327973
1.300182 0.61036402 -0.70188743
0.69270658 0.63095599 -0.70999962
0.70722878 0.62461686 -0.71539146
0.83818626 0.63032371 -0.71667951
0.98649937 0.62775743 -0.71807581
1.1311103 0.62900198 -0.71115565
1.2926488 0.63120794 -0.70304769
1.110634 0.6538018 -0.7079373
1.1238141 0.64313656 -0.71149445
1.2931062 0.65121865 -0.70792067
0.51818943 0.6786381 -0.71747428
0.52008975 0.67251903 -0.71410477
0.80964625 0.66930842 -0.71796525
0.96613938 0.66162914 -0.71917826
1.0930308 0.67082715 -0.70421082
1.2889487 0.66907763 -0.7102412
0.51445919 0.6823957 -0.71814823
0.78888488 0.69396281 -0.7181136
1.0721121 0.6900993 -0.69980675
1.08206 0.68251199 -0.70234752
1.2729113 0.69078839 -0.70815277
1.282742 0.68091565 -0.7102412
0.76867098 0.71037173 -0.71514648
0.9178319 0.71500582 -0.71421725
0.93750602 0.70300472 -0.71972948
1.0673541 0.71045345 -0.70404148
1.2543319 0.71598399 -0.70606434
1.2647216 0.70657927 -0.70838481
0.87557632 0.73540467 -0.70098788
0.8922646 0.73093426 -0.70760256
0.90704274 0.72770095 -0.71384978
1.0660304 0.73342788 -0.71098632
1.2454294 0.73132443 -0.70606428
0.58584756 0.74508506 -0.7188803
0.87068295 0.74972224 -0.70466274
1.0523545 0.75291932 -0.71098626
1.0620608 0.74518949 -0.71301895
1.216599 0.7551167 -0.69956696
1.2318147 0.74894983 -0.70467198
0.85260594 0.7619167 -0.70098788
0.86163849 0.76054174 -0.70484644
1.0387025 0.77741736 -0.71301895
1.0447659 0.76705825 -0.71225667
1.2159457 0.77031767 -0.70351183
1.383366 0.77600652 -0.68270743
0.85328794 0.79130381 -0.71440101
0.86336386 0.78114897 -0.71476847
1.0376508 0.79165566 -0.71759242
1.2064056 0.78517437 -0.70351183
1.4030316 0.79842454 -0.69569182
0.82944643 0.81289923 -0.71283919
0.84477443 0.80786204 -0.7178002
1.0138886 0.81363738 -0.71454346
1.0248173 0.80192626 -0.71530569
1.1982623 0.8063184 -0.70606434
1.2044743 0.81052417 -0.71000916
1.3948255 0.81085503 -0.69527298
0.79953432 0.83831358 -0.7109099
0.81189179 0.83061439 -0.7129311
0.8228153 0.82139081 -0.71366602
0.99882472 0.83744246 -0.7165761
1.004492 0.8265661 -0.71505159
1.1922925 0.82915157 -0.7102412
1.3886706 0.83023435 -0.69736719
0.79182428 0.85090637 -0.71348232
0.99150991 0.8522439 -0.71894747
1.1662223 0.85424089 -0.70676047
1.1841842 0.84527314 -0.7116335
1.37123 0.85444874 -0.69632006
1.3825277 0.84392935 -0.69820493
0.77604723 0.87074125 -0.71614653
0.78208053 0.86139351 -0.71421725
0.95481104 0.87840796 -0.71301895
0.97372884 0.86862773 -0.71742296
1.1528213 0.86635637 -0.70490408
1.3598747 0.87661874 -0.69736725
1.3636963 0.86728227 -0.69652951
0.91511047 0.89523077 -0.70285571
0.93225956 0.88987815 -0.70793736
0.94354618 0.8842203 -0.71047813
1.1460267 0.88910103 -0.70931298
1.3566625 0.89235401 -0.70008975
0.90769506 0.91006184 -0.70590466
1.1419368 0.91434121 -0.71581036
1.3471248 0.9099369 -0.7009275
0.89805704 0.9399389 -0.71454346
0.90426207 0.92916125 -0.71251076
1.1193341 0.93637443 -0.71395397
1.1337216 0.93080235 -0.71789879
1.3187573 0.93262601 -0.69611067
1.3339967 0.92509866 -0.69988036
1.5578847 0.93651068 -0.6835115
0.87710768 0.95250452 -0.71149445
0.89024371 0.9491061 -0.71530569
1.0942997 0.95610416 -0.71070528
1.1089785 0.94519526 -0.71279371
1.2969804 0.95351088 -0.69359756
1.3075411 0.94285047 -0.69464469
1.5535429 0.95347154 -0.68556315
0.86802334 0.96617824 -0.71386594
1.0687151 0.97499037 -0.70730191
1.0808295 0.96201479 -0.70745659
1.2932266 0.96921962 -0.69652951
1.5383465 0.97695106 -0.68537664
1.5435262 0.96700037 -0.68500358
0.84982634 0.99396056 -0.71911687
0.860838 0.98217148 -0.71810055
1.0528836 0.99057472 -0.70676047
1.2749784 0.99901444 -0.69820493
1.2871418 0.98329329 -0.69820493
1.5304523 0.99181783 -0.68593621
0.80910337 1.0136564 -0.71276486
0.83084428 1.0087551 -0.71860874
1.0373744 1.0188603 -0.71116942
1.0438335 1.006498 -0.70908093
1.2692639 1.0135447 -0.70029914
1.2925674 1.0000733 -0.70490652
1.5177596 1.0169951 -0.68724179
1.5247447 1.0081755 -0.6876148
0.80319339 1.0254738 -0.71606791
1.0320156 1.0324353 -0.71418601
1.25533 1.0278881 -0.69946146
1.5052688 1.028815 -0.68574965
1.0134509 1.0518949 -0.71465015
1.0240228 1.0434779 -0.71534628
1.2341213 1.0490564 -0.69820493
1.2472174 1.0405657 -0.7002992
1.4783076 1.0576689 -0.6835115
1.4894956 1.0450733 -0.68425757
0.99393278 1.0770048 -0.71720266
1.0041006 1.0681301 -0.7174347
1.2242323 1.0668104 -0.70008975
1.4599848 1.0718827 -0.68090034
0.97216004 1.0931197 -0.71581036
0.98849785 1.0843936 -0.71813083
1.2118734 1.0892048 -0.70267266
0.94900161 1.1074582 -0.71348983
1.1920719 1.1117294 -0.70295191
1.4376423 1.1107968 -0.68313849
0.91570359 1.137444 -0.71441805
0.92977309 1.1263317 -0.71457273
1.1570963 1.1334584 -0.69820493
1.1749952 1.1299996 -0.70302176
1.4362572 1.1381611 -0.68947995
0.8761152 1.1593399 -0.71070528
0.89117545 1.1496491 -0.71147889
0.90870714 1.1430413 -0.71441805
1.1398548 1.1584517 -0.70071805
1.1494949 1.1469482 -0.70008975
1.4142666 1.1492579 -0.68537664
1.430693 1.1481148 -0.69022596
0.86830223 1.1712646 -0.71325785
1.1170899 1.1779175 -0.6998803
1.1275623 1.1672549 -0.69967091
1.4118383 1.1690283 -0.68966639
0.85185051 1.1867241 -0.71472746
1.1108334 1.1931312 -0.70302176
1.3983265 1.1944766 -0.69209111
1.4077555 1.1876707 -0.69321018
0.8176983 1.2162282 -0.71720266
0.8291049 1.2090099 -0.7174347
0.8424812 1.204603 -0.71952313
1.0904968 1.2154088 -0.70427823
1.1019512 1.2056588 -0.70448768
1.3835632 1.2115463 -0.69209111
1.4078021 1.2176137 -0.70104373
1.732331 1.2133329 -0.68469846
0.43316787 1.2275336 -0.71555978
0.79210156 1.2346225 -0.71789885
0.81070924 1.2219613 -0.71766675
1.0679467 1.2352698 -0.70427823
1.0807714 1.2271018 -0.70532542
1.3771812 1.2285609 -0.69470227
1.7028111 1.2319999 -0.6801284
0.75931978 1.2586805 -0.71952313
0.77133232 1.2523873 -0.71998721
0.78141797 1.2429898 -0.71859497
1.0497342 1.2525448 -0.70490652
1.3512809 1.2508543 -0.69302368
1.3651452 1.240555 -0.69432926
1.6997917 1.2457805 -0.682087
0.73558021 1.2716765 -0.71905905
0.75203449 1.2640775 -0.71998721
1.0153009 1.2736808 -0.70239341
1.0306985 1.2688565 -0.70511597
1.3356307 1.274966 -0.69507533
1.3501742 1.2731172 -0.69880557
1.6743182 1.2751375 -0.6811077
0.69622564 1.2936419 -0.71905905
0.70457393 1.2901235 -0.71952313
0.72035271 1.2813801 -0.71952313
1.0082816 1.2890482 -0.70595372
1.307984 1.2954142 -0.69283718
1.3264902 1.2897902 -0.69656742
1.6776836 1.2940538 -0.68600428
0.99732375 1.3078372 -0.70972335
1.2952421 1.3146749 -0.69470233
1.3078674 1.3113047 -0.69731349
1.6487665 1.3125503 -0.68208706
1.6667337 1.301994 -0.68469852
0.97570568 1.3381268 -0.71495897
0.98634553 1.326901 -0.71370244
1.2749157 1.3343838 -0.69470227
1.2865045 1.3219321 -0.69432926
1.6490889 1.3378162 -0.68763644
0.95921135 1.3499994 -0.71495897
0.96747673 1.3440884 -0.71495897
1.264491 1.3480973 -0.6958214
1.6325476 1.3579524 -0.68763644
1.6415792 1.3485101 -0.68796289
0.93778086 1.3726783 -0.71789092
0.95141423 1.3654687 -0.71872866
1.2559888 1.3724172 -0.70067072
1.2681665 1.3687713 -0.70290887
1.6164794 1.3784978 -0.68796289
1.6212944 1.3655064 -0.68633068
0.91484392 1.3935047 -0.71998519
0.92661697 1.3835094 -0.7191475
1.2188854 1.3993269 -0.69880557
1.23967 1.3884194 -0.70104373
1.2481658 1.3807868 -0.70104373
1.6065606 1.387154 -0.68730998
0.87941229 1.4139935 -0.7191475
0.89263141 1.4062144 -0.71935689
1.1764874 1.4195257 -0.69395626
1.193977 1.4139556 -0.69675398
1.2096717 1.4060757 -0.69843256
1.2403249 1.4064448 -0.70663917
1.568689 1.4143465 -0.68371922
1.5957836 1.4124069 -0.69024789
1.6022862 1.400721 -0.68926859
0.83471441 1.4387321 -0.71830982
0.84837902 1.4317636 -0.71872866
0.86246359 1.425456 -0.71956635
1.1753877 1.4360574 -0.69880557
1.5405788 1.4324652 -0.6807813
1.5604709 1.4332228 -0.68600428
0.82497048 1.4422497 -0.71747208
