ply
format ascii 1.0
comment PCL generated
element vertex 1525
property float x
property float y
property float z
element camera 0
property float view_px
property float view_py
property float view_pz
property float x_axisx
property float x_axisy
property float x_axisz
property float y_axisx
property float y_axisy
property float y_axisz
property float z_axisx
property float z_axisy
property float z_axisz
property float focal
property float scalex
property float scaley
property float centerx
property float centery
property int viewportx
property int viewporty
property float k1
property float k2
end_header
-4.4417009 3.0414214 1.727623
-4.4143357 3.0626407 1.7243103
2.464036 3.0938869 1.7226298
2.4956582 3.0944495 1.73131
2.5279605 3.0954521 1.7403847
2.5539303 3.0883825 1.7451193
2.5828564 3.0846338 1.7518268
2.3951273 3.1636848 1.7281536
2.3910663 3.1989348 1.7392011
2.386117 3.2335138 1.749854
-2.392709 3.2514844 1.757745
-2.3629875 3.2527266 1.7506431
-2.2763872 3.2580185 1.7309154
-2.2453933 3.2560434 1.7226298
-2.3381627 3.2604456 1.7470921
-2.3101456 3.263484 1.7411737
-1.0666789 3.3285158 1.7348396
-0.97722262 3.4054139 1.7581551
-0.95509523 3.407023 1.7559555
-0.93322229 3.4093547 1.7541958
-0.91251749 3.4158843 1.7546357
-0.89040679 3.4170744 1.7524362
-0.86853737 3.4189923 1.7506765
-0.84624577 3.4190273 1.748037
-0.79929543 3.4081731 1.737479
-0.82461876 3.4215367 1.7467172
-0.65272027 3.4419968 1.7387987
-0.50134301 3.4464107 1.7286807
-0.48043519 3.4512007 1.7295605
-0.28808925 3.4590337 1.7229618
-0.4603186 3.462095 1.7335198
-0.43940672 3.4675269 1.7348396
-0.41855329 3.4737239 1.7365992
-0.26810917 3.4768527 1.7308803
-0.2471541 3.4838068 1.7335198
0.03132185 3.5031993 1.7387987
0.052908637 3.5092268 1.7418782
0.074439853 3.508836 1.7418782
0.096016631 3.5101087 1.742758
0.11773059 3.5148387 1.7453976
0.13929501 3.5140502 1.7453976
0.1607728 3.5113351 1.7445177
0.18268457 3.5174572 1.748037
0.20493604 3.5279253 1.7537559
0.22669354 3.528394 1.7546357
0.24852721 3.529624 1.7559555
0.27038452 3.530719 1.7572752
0.29233828 3.5325735 1.7590349
1.6384388 3.5998788 1.7226298
1.6666638 3.6031036 1.7289426
1.6938181 3.6036217 1.7340719
1.72025 3.6022835 1.7384119
1.7519389 3.6115055 1.7478812
1.7817763 3.6163514 1.7553778
3.8717425 3.8788157 1.7583419
5.0924592 3.9784639 1.7239584
5.1550627 3.9766908 1.736644
5.2355299 3.9877825 1.755165
-4.6591339 -2.9965975 1.7770141
-3.7495437 -2.9002986 1.7867409
-3.7139704 -2.9093714 1.7783839
-2.3524394 -2.7456422 1.7937882
-2.3187332 -2.7401373 1.7810307
-2.286335 -2.7357018 1.769153
-1.7369435 -2.6961319 1.7985619
-1.7100537 -2.6904948 1.7878965
-1.6828346 -2.6838884 1.7767463
-1.6603585 -2.6844909 1.7704439
-1.6370283 -2.6834249 1.763172
-1.0698688 -2.6243191 1.7843169
-1.0524855 -2.6276817 1.782202
-1.0354115 -2.6317203 1.7806159
-1.0161892 -2.6301048 1.7753286
-0.99612415 -2.6259713 1.7684553
-0.97555667 -2.6200998 1.7605244
-0.23338693 -2.5503907 1.7989084
-0.18646228 -2.5550733 1.7994795
-0.15494598 -2.5547109 1.797766
-0.13111979 -2.5498681 1.7934825
-0.10741842 -2.5456481 1.78977
-0.091709383 -2.5437982 1.7880566
-0.068290167 -2.5445228 1.7880566
-0.044856876 -2.5442348 1.7874855
-0.029209184 -2.5411787 1.785201
-0.013604578 -2.5388477 1.7834876
0.0097524682 -2.5368013 1.7820597
0.033107176 -2.5370264 1.7823452
0.048689708 -2.5375962 1.7829163
0.071936853 -2.5333364 1.7803462
0.095233522 -2.5321689 1.7800606
0.11087799 -2.5339968 1.781774
0.1263828 -2.532449 1.7812029
0.14963582 -2.5303473 1.7806318
0.1729755 -2.5296938 1.7812029
0.18837109 -2.5269477 1.7800606
0.20373951 -2.5241079 1.7789184
0.21872234 -2.5170863 1.7749203
0.23431593 -2.5173314 1.7760627
0.24918641 -2.5101287 1.7720647
0.26467019 -2.5093687 1.7726358
0.28837624 -2.5121138 1.7763482
0.31162754 -2.5105882 1.777205
0.32734621 -2.5110705 1.7789184
0.35049778 -2.5083461 1.7792039
0.37351134 -2.5046198 1.7789184
0.38861924 -2.5006588 1.7777761
0.41182107 -2.4981785 1.7786329
0.43528968 -2.4971247 1.7806318
0.4510428 -2.49683 1.7823452
0.46711144 -2.4980493 1.785201
0.49096033 -2.4980607 1.7883422
0.51517379 -2.4994781 1.7926258
0.53032947 -2.4954672 1.7920547
0.54475117 -2.4881573 1.7891989
0.56780922 -2.4838266 1.78977
0.59160239 -2.4824989 1.7926258
0.60780191 -2.4828081 1.7954814
0.63966215 -2.4807258 1.7994795
0.62322527 -2.4798281 1.7960526
0.65487152 -2.4767542 1.7994795
4.9356208 -2.4409256 1.7664733
1.4077601 -2.4184892 1.7621105
1.4281878 -2.4193051 1.768984
1.4443146 -2.4126804 1.7705702
1.4612955 -2.4073994 1.7732137
1.4813826 -2.4070594 1.7795584
1.5019702 -2.4072828 1.7864318
1.522616 -2.4073441 1.7933053
1.5428605 -2.4065278 1.79965
2.0817137 -2.3622274 1.7660807
2.1031599 -2.3572381 1.7718983
2.1269696 -2.3546691 1.779655
2.1525979 -2.3538318 1.788866
2.1782959 -2.3527682 1.7980771
2.6937952 -2.3080537 1.7603546
2.7277937 -2.3082964 1.7731122
2.7494881 -2.2978473 1.7779512
2.7663071 -2.2832189 1.7797109
4.1956997 -2.2659047 1.7971871
2.7719085 -2.2593968 1.7744319
2.7647262 -2.2254617 1.7612345
6.339004 -2.2205873 1.7906847
6.3570848 -2.1832199 1.7919533
2.9799082 -1.9245237 1.7603546
3.0249934 -1.9274225 1.7797109
3.0633807 -1.9255413 1.795108
4.5338707 -1.2457609 1.7724643
6.3099899 2.349292 1.7949978
-3.2168324 2.5618796 1.7900984
-3.1752961 2.5608125 1.7758945
-3.1452854 2.5686281 1.7680035
-3.1029568 2.5981874 1.7620851
-3.1283205 2.6522222 1.7853638
-3.1273313 2.6845288 1.7940439
2.6225235 3.0932658 1.7656361
2.6600003 3.0987365 1.7778672
2.7006547 3.1073318 1.7920711
-2.5633659 3.2273908 1.7940439
-2.5264955 3.2213738 1.7822074
-2.5038674 3.2331839 1.7802346
2.3835368 3.2718663 1.7624797
2.365561 3.2894146 1.7640579
2.3798888 3.3525827 1.7897038
-1.0618472 3.3846898 1.7603546
2.3729753 3.386693 1.7999622
-1.0439621 3.4005837 1.7651937
-1.0235941 3.4086452 1.7660736
-1.0003797 3.4071076 1.7621143
0.31448334 3.5360806 1.7616744
0.33634377 3.5358725 1.7625542
0.3581233 3.5346355 1.7629942
0.38047412 3.5386221 1.7660736
0.40359515 3.5487137 1.7722324
0.4249357 3.5426037 1.7704726
0.44677678 3.5408206 1.7709126
0.47013974 3.550477 1.7770715
0.49326903 3.5573108 1.7819105
0.51560074 3.5577724 1.7836702
0.53728724 3.5536537 1.7832303
0.55991793 3.555613 1.7858697
0.58389586 3.5654049 1.7924684
0.60756439 3.5723798 1.7977475
0.62993956 3.571238 1.7990673
0.6520015 3.5681889 1.7995071
1.8100953 3.6176789 1.761296
1.8372498 3.6163366 1.7660307
1.8665603 3.618881 1.7727381
1.9233255 3.6192384 1.78418
1.8963969 3.6220152 1.77984
1.9533426 3.6219292 1.7912821
3.92664 3.8858483 1.7721955
3.9735878 3.8843513 1.7824351
4.0261507 3.8877239 1.795084
5.3093686 3.9928007 1.7714026
5.3920059 4.003406 1.790431
-4.807889 -3.009552 1.818876
-4.7466655 -3.0119076 1.8029144
-3.8634236 -2.913353 1.8233027
-3.800041 -2.9022822 1.802062
-2.4803722 -2.7551847 1.8386596
-2.4508941 -2.756254 1.8294214
-2.4232736 -2.7590909 1.8215029
-2.3910053 -2.7562642 1.8100652
-1.8355 -2.7011771 1.831043
-1.8125631 -2.7029424 1.8247408
-1.7872621 -2.7008801 1.8160144
-1.858979 -2.6999526 1.8378302
-1.762055 -2.6986096 1.8072882
-1.2317359 -2.6425352 1.8350744
-1.2119638 -2.6423261 1.8297873
-1.0963454 -2.6427989 1.8012362
-1.2812846 -2.6217036 1.8366606
-1.2673796 -2.6341064 1.839833
-1.2501044 -2.6395314 1.8382468
-1.1901484 -2.6373312 1.8213277
-1.170504 -2.6368246 1.8160404
-1.1522675 -2.6392887 1.812868
-1.1330416 -2.6392879 1.8081095
-1.1131999 -2.6375864 1.8022935
-0.4446362 -2.5746491 1.8348901
-0.4285616 -2.5757091 1.8337479
-0.41236147 -2.5758586 1.8320345
-0.38821453 -2.5766902 1.8300354
-0.36293495 -2.5691938 1.8223251
-0.34628913 -2.5648642 1.8177559
-0.33033621 -2.5653121 1.8166137
-0.31498691 -2.5705502 1.8188982
-0.29081464 -2.5688412 1.815757
-0.26652184 -2.5652978 1.8114734
-0.2027148 -2.5612459 1.8046197
-0.24982463 -2.5570807 1.8046197
-0.21821864 -2.5575001 1.8029063
-0.17083536 -2.5569882 1.8000506
-2.7477632 -2.4765351 1.8347003
0.6719929 -2.4798186 1.8046197
0.6878562 -2.4780211 1.8063331
0.71108782 -2.4731505 1.8074754
0.7361666 -2.4743795 1.8131868
0.75181401 -2.4713862 1.8143291
0.7686733 -2.4722126 1.8183271
0.78606898 -2.4744892 1.8234674
0.81099236 -2.4737639 1.8283221
0.83569664 -2.4720404 1.8326056
0.8513853 -2.4684176 1.8337479
0.8670609 -2.4646957 1.8348901
0.88411099 -2.4647365 1.8388882
-2.7568724 -2.454252 1.8307412
-2.8010161 -2.4326077 1.8399794
-2.7732279 -2.4384766 1.8316209
1.5617634 -2.403419 1.8044084
1.5811534 -2.4008772 1.8096957
1.5996276 -2.3967762 1.8139255
1.6185868 -2.3932416 1.818684
1.6418843 -2.3958635 1.8282011
1.6628523 -2.3948042 1.8350744
2.2034626 -2.3508396 1.8068033
2.2298923 -2.3499587 1.8164992
2.2563934 -2.3488414 1.8261951
2.2811344 -2.3456068 1.8344365
3.6043077 -2.1785898 1.8327101
3.1033845 -1.9242067 1.8113849
3.1312253 -1.9149613 1.820623
4.7035131 -1.2613333 1.8347937
5.2112904 2.3157606 1.8285134
5.1961141 2.3473001 1.8282123
5.1876788 2.3819253 1.8303204
-3.3615422 2.5448065 1.8346828
-3.3327353 2.5553253 1.8275809
-3.2872295 2.5526304 1.8114042
-3.2570555 2.5613973 1.8035132
-8.1603222 2.6374593 1.8340102
-8.0854359 2.66817 1.8210441
-8.005846 2.6965005 1.8070489
-3.1302254 2.7205381 1.8050914
-3.1321046 2.7560766 1.8157443
-8.0807762 2.7770445 1.8274243
-3.1281743 2.7868519 1.8232409
-3.1362698 2.8287559 1.8378392
2.7439411 3.1183038 1.8078532
2.7844079 3.1254292 1.8216627
2.8318317 3.1396825 1.839812
-2.7240744 3.2215958 1.8358666
-2.6936498 3.225558 1.8287646
-2.6621096 3.2278516 1.8208735
-2.6248381 3.2227573 1.809037
-2.5963719 3.2280653 1.8031186
3.6519396 3.2411919 1.8396686
2.3709564 3.4284031 1.8141661
2.366961 3.4679375 1.8271863
2.3600037 3.5037396 1.8382338
0.67488211 3.569416 1.8021467
0.70020884 3.5828364 1.8109449
0.72395253 3.5872762 1.8153441
0.74686354 3.587163 1.8175436
0.76885992 3.5825129 1.8175436
0.79256856 3.5856202 1.8215029
0.81694084 3.5911987 1.8267819
0.83936912 3.5878673 1.8276618
0.86325431 3.5905087 1.8316209
0.88806319 3.5964794 1.8373399
0.90989381 3.5900922 1.8369
0.93213069 3.5853107 1.8373399
1.9861097 3.6292248 1.8007513
2.0177023 3.6338432 1.809037
2.0498767 3.6390109 1.8177171
2.0881128 3.6542933 1.8315264
2.1201663 3.6581104 1.839812
4.0864916 3.8978381 1.8110458
4.1429439 3.9034326 1.8252006
4.196826 3.9058807 1.8381506
5.4710708 4.0102863 1.8081908
5.540235 4.0089717 1.8226525
-4.9714904 -3.0277312 1.8658578
-4.8862972 -3.017082 1.8411623
-3.9789321 -2.9245958 1.8602129
-3.9233248 -2.920954 1.8428025
-2.5809135 -2.7628946 1.8747327
-2.5419977 -2.7549102 1.8588958
-2.5111387 -2.7551847 1.8487777
-1.9394015 -2.7086706 1.8674026
-1.9111419 -2.7040868 1.8562523
-1.8855124 -2.7028463 1.847526
-1.3435091 -2.6656775 1.8784299
-1.3124257 -2.644212 1.8578097
-2.7454793 -2.5994315 1.8747327
-0.63197041 -2.5994263 1.8782969
-0.61393464 -2.5944672 1.8720143
-0.59616727 -2.5901849 1.8663028
-0.56992388 -2.5847263 1.8585925
-0.54518056 -2.5854571 1.8554512
-0.52930623 -2.5887535 1.8554512
-0.51245785 -2.5871208 1.8520243
-0.49534136 -2.5837662 1.8474553
-2.7502313 -2.5721042 1.8672541
-0.46977806 -2.578512 1.8406016
-2.7435417 -2.5344532 1.8522971
-2.7424626 -2.5024321 1.8412992
0.90932357 -2.4634097 1.8440285
0.93545645 -2.4641573 1.8508821
0.95411646 -2.4675562 1.8577358
0.97014266 -2.4639463 1.8594491
-2.8806605 -2.4404471 1.8720932
0.98585463 -2.4594707 1.8605915
1.0095429 -2.4529362 1.8625906
1.035436 -2.4514914 1.8685875
1.0530542 -2.451124 1.8731565
1.0690615 -2.4468725 1.8748699
-2.8383758 -2.4346786 1.8544966
1.6838689 -2.3935776 1.8419479
1.7019747 -2.3880372 1.845649
1.7215676 -2.3844283 1.8509362
1.7431859 -2.3834078 1.8583384
1.7673843 -2.3856204 1.8683841
1.789126 -2.384232 1.8757863
2.3065341 -2.3427794 1.8431629
2.3612127 -2.3401451 1.8635242
2.3319843 -2.3397284 1.8518891
2.3886576 -2.3384559 1.8737048
3.6878679 -2.1982827 1.8678253
4.0784078 -1.3087087 1.8634852
-8.6763134 -1.2899168 1.8751725
4.1003885 -1.2880608 1.8697981
4.7420011 -1.2405068 1.8466327
-8.6995649 -1.2388654 1.8784655
4.7994852 -1.2241148 1.8657843
4.8069062 -1.1946427 1.8657843
4.800478 -1.1618218 1.8605611
4.8513169 -1.1426481 1.8772751
6.9382768 -1.1562587 1.8739023
-8.6956749 -1.129617 1.8745551
6.954792 -1.1151941 1.8764395
-8.7208948 -1.0785249 1.8784655
6.9442954 -1.0698515 1.8718727
6.929677 -1.0241151 1.866291
6.9703097 -0.98644876 1.8754246
-8.7595577 -0.75722438 1.8794945
-8.764287 -0.64938426 1.8786713
-8.7632246 -0.59526306 1.8776423
-8.7520618 -0.54057449 1.8745551
-8.7542362 -0.48680818 1.8743492
4.4630651 2.1546309 1.8668289
4.4472356 2.1807363 1.8657843
4.4463563 2.2142549 1.8710074
-3.4717026 2.5290079 1.8686144
-3.4361515 2.5355384 1.8579615
-3.3918176 2.5351298 1.8425739
-6.3940125 2.8301635 1.8629928
-8.148551 2.8563435 1.8463589
-3.1466827 2.8733406 1.8540159
-8.1465378 2.9118853 1.8498577
-3.1600401 2.9212763 1.8721654
-8.1570215 2.972198 1.8562379
-8.1533098 3.0276408 1.8595308
-8.1464787 3.0821114 1.8622063
-8.1940765 3.1577168 1.8772306
-2.9088914 3.1938519 1.8792673
-2.8726406 3.1932015 1.8686144
-2.8438346 3.2004673 1.8626962
-2.8186865 3.211643 1.8591452
-2.786283 3.2143011 1.8508595
-2.7515621 3.2138917 1.8409957
3.7233222 3.2237542 1.855338
3.7034714 3.2465394 1.855338
-1.8553144 3.296376 1.8756125
2.3547292 3.5426478 1.8508595
0.95619076 3.5873344 1.8412992
0.98149204 3.5935292 1.8474579
1.0307009 3.5993464 1.8566961
1.0542798 3.5981259 1.8593357
2.3485618 3.5808539 1.8630906
1.0071468 3.6004133 1.8540567
1.080457 3.6053545 1.8663744
1.107288 3.6141145 1.8742929
2.3455062 3.6245179 1.8780837
2.1448989 3.648994 1.8417848
2.1738315 3.6468167 1.8473085
2.2061431 3.6499271 1.8555942
2.2433732 3.6606138 1.8678253
2.2754853 3.6623929 1.8757163
4.3467889 3.8986607 1.87158
4.2558055 3.9123321 1.8532089
4.3072577 3.9111521 1.8649544
5.6245403 4.0176435 1.8419346
5.7067876 4.0237575 1.8604556
-5.1296802 -3.0384476 1.9104303
-5.0537267 -3.0354824 1.8893487
-4.160655 -2.9418173 1.918712
-4.1013818 -2.9378023 1.8999088
-4.0415573 -2.932621 1.8807572
-2.6931829 -2.7787852 1.9182844
-2.6518714 -2.7699499 1.9011277
-2.6089201 -2.7587552 1.8826512
-2.7445116 -2.7293751 1.9187243
-2.056329 -2.7280302 1.9144274
-2.0762117 -2.7195339 1.9173361
-2.0233736 -2.718838 1.8993988
-1.9957845 -2.7163954 1.8892182
-1.9693285 -2.7151339 1.8800071
-2.7445567 -2.696115 1.9072865
-2.7500958 -2.6685882 1.8998079
-1.4685458 -2.6649854 1.9143832
-1.4469049 -2.6642468 1.9075097
-1.4241282 -2.6610975 1.8990501
-1.4042135 -2.6630266 1.8942916
-1.3851107 -2.6663187 1.8905905
-1.3640891 -2.6656976 1.8842459
-2.7469759 -2.6330135 1.8866104
-0.82361734 -2.6072516 1.9194189
-0.80639398 -2.6083343 1.9165633
-0.78871411 -2.6077323 1.9125652
-0.77060729 -2.605437 1.907425
-0.75460607 -2.6101165 1.907425
-0.73724043 -2.609957 1.9039981
-0.71082723 -2.6079035 1.8977156
-0.68345606 -2.6016462 1.8885773
-0.66626042 -2.6010189 1.8851506
-0.64929664 -2.6010754 1.8822948
-8.6112356 -2.5577025 1.9196278
-2.9719844 -2.4558485 1.9112457
-2.9313841 -2.4527059 1.8949689
1.0880594 -2.4492664 1.8817236
1.1064502 -2.4500232 1.8874351
1.1301612 -2.4423285 1.8894341
1.1548796 -2.4366574 1.8931465
1.1719481 -2.4339616 1.8965733
1.1883048 -2.4296734 1.898858
1.2108679 -2.4377704 1.9108518
1.2291337 -2.4368889 1.9159921
1.2463105 -2.4336836 1.9194189
1.8093752 -2.3806398 1.8816022
1.856208 -2.3810077 1.8995788
1.8317198 -2.3795779 1.889533
1.8776245 -2.3782306 1.9064523
1.8980159 -2.3739543 1.9122683
1.9184251 -2.3695173 1.9180841
2.4130251 -2.3334789 1.8814615
2.435523 -2.3264792 1.8877637
2.4631169 -2.3240905 1.8979445
2.4946132 -2.3250265 1.9110339
-8.6752319 -2.2896025 1.9173639
-8.6682692 -2.2309599 1.912836
5.5047469 -2.2346888 1.9038047
3.7345641 -2.1951585 1.8843966
3.7781789 -2.1897011 1.8993895
-8.6590147 -2.1720126 1.9078965
3.8098967 -2.1769564 1.9084643
5.5814409 -2.1470139 1.9161525
-8.6579208 -2.1153548 1.9048094
-8.6593132 -2.0594723 1.9023396
-8.6651134 -2.0047557 1.9008989
2.7481236 -2.0190742 1.9110339
2.7406301 -1.9878041 1.8974596
2.7406821 -1.9622999 1.8892182
-8.6791601 -1.9519796 1.9013106
2.7591014 -1.9499868 1.8935813
2.7853656 -1.9430224 1.9032772
2.8152506 -1.9382869 1.9153969
-8.7014904 -1.9009877 1.9035745
-8.6948023 -1.8437009 1.899664
-8.6925325 -1.7875543 1.8967828
8.7243872 -1.7881055 1.9033687
8.737114 -1.7349209 1.9037803
-8.6313601 -1.7198308 1.8813468
-8.6917143 -1.6764827 1.8920491
-8.7153053 -1.625634 1.8949304
-8.7328205 -1.5735167 1.8965769
-8.7201366 -1.5160449 1.8918432
-8.6926003 -1.4563602 1.8840224
-8.6888132 -1.400969 1.8813468
-8.7069159 -1.3491291 1.883405
4.1226983 -1.3508582 1.8871584
4.1679463 -1.2812169 1.8966277
4.2170911 -1.2680411 1.9151717
-8.7234869 -1.1877095 1.8819643
-8.7409554 -1.0265945 1.8813468
-8.7431993 -0.97250831 1.8805236
-8.7499752 -0.91894513 1.8807294
-8.7642136 -0.86610651 1.8825817
17.048422 -0.84184867 1.9105772
-8.7605934 -0.81150025 1.8807294
-8.7737932 -0.704247 1.8815527
-8.7971315 -0.43507215 1.8827876
-8.813323 -0.38168067 1.8856689
-8.8125648 -0.32748646 1.8850515
-8.8007154 -0.27298054 1.8821701
-8.810051 -0.21917114 1.8838166
-8.7945967 -0.16479529 1.8803178
-8.798378 -0.11086701 1.8809352
-8.8086786 -0.056943871 1.8829933
-8.8039684 -0.0028913971 1.8819643
-8.8018637 0.051117733 1.8815527
-8.8033409 0.10514706 1.8819643
-8.8152504 0.15938938 1.8846399
-8.8131275 0.21345219 1.884434
-8.8370838 0.26829267 1.8897852
-8.8704777 0.32379058 1.8971944
-8.8389921 0.37696636 1.8910199
-8.8453102 0.43162218 1.8928723
-8.8776712 0.48781532 1.9002815
-8.8745117 0.54227853 1.9002815
-8.8729696 0.59685236 1.9006932
-8.8984194 0.65343016 1.9068675
-8.9078999 0.70910257 1.9097488
-8.9228821 0.76541686 1.9138651
3.749258 2.1973524 1.8903148
3.8024421 2.1973062 1.9100425
3.7436023 2.2250133 1.8942604
3.7464027 2.2579076 1.9025459
-3.5087943 2.5232086 1.8800565
-6.6287007 2.7892377 1.9152575
-6.5714421 2.8127382 1.9038404
-6.5026155 2.8306248 1.8891251
-3.1608469 2.9581854 1.8832129
-3.1686585 3.0021629 1.8986005
-3.1733952 3.0438035 1.9124098
-3.0467625 3.1845574 1.91675
-3.0158007 3.191175 1.9096479
-2.9767189 3.1888032 1.8974168
-2.9433882 3.1921508 1.8887366
-8.2064323 3.2204423 1.884434
-8.2092381 3.2798085 1.8895793
-1.9566348 3.3313434 1.915205
-1.929402 3.3316321 1.9086062
-1.8991207 3.3262544 1.898928
-8.2533245 3.356281 1.904192
1.3961744 3.5898321 1.9094861
1.4198266 3.5853732 1.9116856
1.4444829 3.5832579 1.915205
1.1567472 3.616508 1.8826512
1.1794729 3.6110499 1.883531
1.3792423 3.6117563 1.9165246
1.135071 3.6252518 1.883531
1.2084173 3.6241937 1.894089
1.2340997 3.626914 1.899368
1.2598608 3.6294553 1.904647
1.2874956 3.6368968 1.9125655
1.3131372 3.6382215 1.9174045
1.3369848 3.6343105 1.9196041
2.3345895 3.6566582 1.8871584
2.3106403 3.6685812 1.8859748
5.8020201 4.0378547 1.883036
5.9592085 4.0396428 1.9172872
5.8960438 4.0498371 1.905109
-5.1869221 -3.0295279 1.9245851
-4.2813458 -2.9490552 1.9570149
-4.2162871 -2.9425309 1.9357742
-8.7152996 -2.8231738 1.9570855
-8.7063417 -2.7613566 1.9513227
-2.7202418 -2.7724679 1.925323
-2.740998 -2.7595489 1.9279625
-2.1623085 -2.7267883 1.9498173
-2.1331413 -2.7241607 1.9386671
-2.1019492 -2.7185099 1.9255776
-8.6913462 -2.6980147 1.9443251
-1.5798352 -2.6698327 1.9513938
-1.55744 -2.6692095 1.9439917
-1.5359581 -2.6698842 1.937647
-1.5136898 -2.6689191 1.9302448
-1.49025 -2.6655583 1.9212565
-8.6019335 -2.6124835 1.9210684
-0.9705019 -2.6175849 1.9593987
-0.95134026 -2.6150036 1.9531163
-0.93307334 -2.6146057 1.9485471
-0.9162007 -2.6179569 1.9468337
-0.89772642 -2.6165402 1.9416934
-0.86986065 -2.6133804 1.9334118
-0.84287053 -2.6123064 1.9268438
-8.6493206 -2.5113692 1.9245672
-3.0536253 -2.460912 1.9437995
-8.6702156 -2.4598541 1.9258021
-3.0036905 -2.4511998 1.9218037
1.2642523 -2.4318154 1.9239881
1.289667 -2.425858 1.9285572
1.3166475 -2.4225526 1.9354109
1.3350586 -2.4208953 1.9405512
1.354301 -2.4205353 1.9468337
1.3735892 -2.4200301 1.9531163
1.3933319 -2.42009 1.95997
-8.6823168 -2.4058239 1.9251847
1.9399282 -2.3662312 1.9249576
1.9620054 -2.3634229 1.9323597
1.9857602 -2.3623807 1.9413481
2.0139794 -2.3663044 1.9545661
-8.6808567 -2.3481586 1.9216859
2.5223505 -2.3221104 1.9212145
2.6157181 -2.3205409 1.9590284
2.5501456 -2.3189409 1.9313952
2.581902 -2.3190222 1.9444846
5.5971923 -2.2322912 1.9306084
5.591249 -2.1902583 1.9239827
3.8592162 -2.17382 1.9262192
3.9022112 -2.1665933 1.9408176
2.753093 -2.1557763 1.9590284
2.7496569 -2.1260104 1.9473933
2.7452645 -2.0958378 1.9352735
2.7482915 -2.0715876 1.9284863
2.7497206 -2.0463355 1.9207298
2.8466289 -1.93424 1.9284863
2.8744297 -1.9274464 1.9391519
2.9175756 -1.930513 1.9599979
-8.9540739 0.82346261 1.9214801
-8.994627 0.88287425 1.9311532
-9.0542526 0.94484288 1.9449426
-9.073575 1.0031731 1.9502937
-9.0886326 1.0613225 1.9548215
-9.0974903 1.1189785 1.9581145
-9.0972471 1.1756555 1.9595551
-8.7507095 2.6513054 1.9533808
-8.7183847 2.7000296 1.949882
-8.5971527 2.7204239 1.9268311
-6.809402 2.7673817 1.9568663
-6.7189918 2.7788119 1.9360619
-5.3398004 2.8899729 1.9450643
-5.2818422 2.9006596 1.9306084
-5.2431173 2.9214151 1.9230793
-5.220942 2.9511859 1.9215734
2.4119346 3.0730724 1.9363209
2.4441495 3.0750928 1.9468789
-3.1744421 3.0824149 1.9242464
2.3919334 3.0863938 1.935441
-3.1784112 3.1243727 1.9380558
2.3876786 3.1202738 1.9473188
2.3820152 3.1527839 1.9583167
-3.1767719 3.1613107 1.9487087
-3.152782 3.1761799 1.9459468
-3.1190763 3.1810358 1.9372667
-3.0822327 3.1822987 1.9266137
-2.2043946 3.2751048 1.956557
-2.1832631 3.2870734 1.9556772
-2.1541872 3.2868912 1.9477587
-2.1266599 3.2887383 1.94116
-2.1025741 3.29567 1.9376407
-2.0823126 3.3085091 1.9376407
-2.0577071 3.3143587 1.9336814
-2.0288849 3.3131399 1.9257629
-2.0043366 3.3186097 1.9218037
-1.9825567 3.3285315 1.9204839
-8.3094397 3.4386539 1.9216859
-0.63330853 3.4326422 1.9556348
-0.61300319 3.4407687 1.9580587
-0.59217644 3.4461889 1.9590284
-0.56987429 3.4428551 1.95515
-0.54791123 3.4411049 1.9522412
-0.52744967 3.4487245 1.9546652
-0.50716984 3.4579532 1.9580587
-0.48582068 3.460134 1.957574
-0.46493053 3.4656501 1.9590284
-0.44343427 3.4667027 1.9580587
-0.42109448 3.4606764 1.9532108
-0.39985225 3.4631951 1.9532108
-0.37859493 3.4655833 1.9532108
-0.35786352 3.4730611 1.9561195
-0.33629242 3.47258 1.9546652
-0.31537542 3.4789331 1.9570892
-0.29387519 3.4790597 1.9561195
-0.27238527 3.4790535 1.95515
-0.2508432 3.4780424 1.9536957
-0.22909205 3.473407 1.9503021
-0.20761757 3.4721284 1.9488477
-0.18687575 3.4838171 1.9546652
-0.16553779 3.4857719 1.95515
-0.080126509 3.496654 1.9595132
-0.0586248 3.4944563 1.9580587
-0.03721115 3.4973738 1.9595132
-8.413558 3.5423386 1.9502937
1.4705288 3.5842988 1.9204839
1.4987155 3.5901279 1.9284024
1.5245739 3.5899582 1.9332415
1.5497749 3.5879571 1.9372008
1.5778954 3.5923603 1.9446793
1.6046644 3.5932724 1.9503982
1.6315039 3.593991 1.9561172
1.3608339 3.6302435 1.9218037
8.3652239 3.6501255 1.949882
3.4495268 3.7733736 1.9249798
3.4866188 3.7672763 1.9326403
3.5333765 3.7711289 1.9455241
3.5796671 3.7738681 1.9580595
8.3130398 3.8729219 1.9591435
4.6728067 3.9393191 1.9577132
8.2900047 3.9242756 1.9593494
4.621717 3.9450045 1.9465702
6.01443 4.0234451 1.9269283
-8.6543665 -3.526104 1.995778
-8.6603956 -3.4667506 1.9922792
-8.6705761 -3.4092474 1.9898094
-8.6812897 -3.3521028 1.9875455
-8.694375 -3.295996 1.985899
-8.6722479 -3.2268817 1.9764317
-8.7038336 -3.177974 1.9791073
-8.714879 -3.1215374 1.977255
-8.7227898 -3.0641115 1.9747852
-8.7284737 -3.0060687 1.9719038
-8.7226477 -2.9443142 1.9665527
-4.3466415 -2.9548907 1.9782557
-8.7173233 -2.8830523 1.9614074
-2.2615883 -2.7466383 1.9929638
-2.2292502 -2.7414563 1.9793897
-2.1948719 -2.7332528 1.9638762
-1.6804063 -2.6871278 1.993163
-1.6567625 -2.6858261 1.9847034
-1.6314348 -2.6814344 1.974129
-1.6066601 -2.6775615 1.9640832
-1.0852876 -2.6263771 1.9942384
-1.0673015 -2.6284225 1.9908116
-1.0496351 -2.631109 1.9879558
-1.0310787 -2.6313844 1.9833868
-1.0110868 -2.6276999 1.9759619
-0.99088955 -2.6231017 1.967966
-0.18229496 -2.5537179 1.9992658
-0.16631655 -2.550056 1.99559
-0.15029776 -2.5447164 1.9906889
-0.13480462 -2.5479586 1.9925268
-0.11142044 -2.5506585 1.993752
-0.087828755 -2.5484283 1.9913015
-0.072102733 -2.545759 1.988851
-0.048642121 -2.5447226 1.9876257
-0.025180101 -2.5411227 1.9845625
-0.0095702233 -2.5356967 1.9802741
0.005979226 -2.5325463 1.9778236
0.029269669 -2.5311866 1.9769046
0.052526444 -2.5288465 1.975373
0.06797687 -2.5261064 1.9735351
0.091270417 -2.5265465 1.974454
0.11471684 -2.529954 1.9778236
0.12995015 -2.5236773 1.9735351
0.19196616 -2.5213041 1.9747604
0.20769434 -2.5232294 1.9772109
0.23105764 -2.5227728 1.9784362
0.25498164 -2.5276287 1.9839499
0.27057073 -2.5268023 1.9845625
0.28580138 -2.5227387 1.9827247
0.14520276 -2.5188873 1.970472
0.16835603 -2.5170379 1.9701656
0.30837679 -2.5148909 1.9787426
0.33104536 -2.5084321 1.9759856
0.34643057 -2.5063536 1.9759856
0.36936611 -2.5022655 1.975373
0.39287496 -2.5018945 1.9778236
0.40885836 -2.5033364 1.9808867
0.42500693 -2.5054555 1.9845625
0.45600516 -2.5016062 1.9857879
0.43954736 -2.4981306 1.9808867
0.47149315 -2.4995377 1.9864005
0.48727643 -2.4989247 1.9882383
0.51049477 -2.4954829 1.9891573
0.53319091 -2.4895322 1.9882383
0.54896861 -2.4885287 1.9900763
0.56440306 -2.4858842 1.9906889
0.58844841 -2.4855695 1.994671
0.61271936 -2.485816 1.9992658
-3.1443012 -2.4709971 1.9816322
-3.0981715 -2.4656267 1.962276
1.4114696 -2.4171641 1.9645391
1.430461 -2.4155185 1.9702505
1.4486393 -2.4123237 1.9748195
1.4664048 -2.4082959 1.9788176
1.4850385 -2.4055369 1.9839579
1.5050009 -2.4047265 1.9908116
2.0356681 -2.3622577 1.9614396
2.0579412 -2.3586729 1.9688417
2.0841823 -2.3593543 1.9799449
2.1048474 -2.353478 1.9857609
2.1260886 -2.3480656 1.9921056
2.6437268 -2.3165462 1.969209
2.6658301 -2.3071461 1.9750265
2.6939032 -2.3026736 1.9852072
2.7547433 -2.2682564 1.9987813
2.7557116 -2.2408321 1.9895703
2.7612228 -2.2173131 1.9837527
2.7473545 -2.1786029 1.9643611
3.9831538 -2.1796398 1.97396
2.9594011 -1.9321662 1.9798744
2.9940007 -1.9286448 1.994903
7.3136497 -0.98923588 1.9647315
-9.1014986 1.2330278 1.9620249
-9.1024818 1.2900848 1.9638772
-9.1060114 1.3476298 1.966347
-9.1033745 1.4043722 1.9675819
-9.1003838 1.461133 1.9688166
-9.0989695 1.5182317 1.9704632
-9.0923748 1.5745338 1.9710807
-9.122035 1.6373767 1.9795189
-9.1272106 1.6961761 1.9828118
-9.145462 1.7576844 1.9889863
-9.1402645 1.8149095 1.990221
-9.1299152 1.8711553 1.9904269
-8.9947481 1.9010545 1.9638772
-9.0259438 1.9655733 1.9731387
-9.0051193 2.0189929 1.9712864
-8.987793 2.0731103 1.9702574
-9.0158491 2.1379223 1.9791073
-9.0339384 2.2008414 1.985899
-9.0411501 2.2614522 1.9904269
-8.9452066 2.5907948 1.9889863
-8.8484459 2.6217363 1.9712864
-6.9035153 2.7563796 1.9786856
-5.481236 2.880091 1.9830111
-5.4079223 2.8840659 1.9631342
6.84302 2.9378126 1.9822376
6.8284106 2.9812939 1.9832524
2.484359 3.0866299 1.9635956
2.5196977 3.0915215 1.9763533
2.5523322 3.0926306 1.9869112
2.5868015 3.0955229 1.998789
2.3808725 3.1918213 1.9732739
-2.4033034 3.2176621 1.9899906
2.3750815 3.2251761 1.9847116
-2.3699822 3.2556224 1.9952697
-2.3358045 3.2504179 1.9833919
-2.3043797 3.2485788 1.9737138
-2.2787347 3.2545669 1.9688747
-2.2587221 3.2684877 1.9688747
-2.2330556 3.2741265 1.9640356
2.370554 3.2607591 1.9974692
5.1294641 3.3439434 1.9613272
-1.113843 3.3901258 1.9987813
-1.0916793 3.3927341 1.9963574
-1.0695257 3.3951979 1.9939334
-1.0468669 3.3958466 1.9905399
-1.0247463 3.3980198 1.9881159
-1.0016475 3.3966942 1.9837527
-0.97933137 3.3977344 1.980844
5.1160088 3.3800867 1.9640377
-0.95917714 3.4062049 1.9822984
-0.93825895 3.4120262 1.9822984
-0.91594303 3.4126511 1.9793897
-0.89409858 3.4148231 1.9774505
-0.87269539 3.41855 1.9764808
-0.76170325 3.4181027 1.9619371
-0.85106868 3.4212945 1.9750265
-0.82985365 3.4256022 1.9745417
-0.80741149 3.4246712 1.9711481
-0.78618711 3.4287083 1.9706633
-0.74108654 3.4244218 1.9629067
-0.72024089 3.4297605 1.9633914
-0.69988215 3.4375432 1.9653306
-0.67911577 3.4434888 1.9663002
-0.65682387 3.4415777 1.9629067
-0.1446574 3.498956 1.9619371
-0.12318549 3.4997778 1.9619371
-0.10165739 3.4987192 1.9609675
-0.015772531 3.5019095 1.9619371
0.0057214051 3.5071881 1.9648459
0.027260263 3.5097108 1.9663002
0.048794929 3.5094774 1.9663002
0.070310608 3.5082376 1.9658154
0.091790386 3.5059915 1.9648459
0.11366349 3.5167265 1.9711481
0.1355388 3.523829 1.9755113
0.15711945 3.5220573 1.9750265
0.1789033 3.5245209 1.9769657
0.20062464 3.5251033 1.9779353
0.22235987 3.5255518 1.9789048
0.24422821 3.5276113 1.980844
0.26671875 3.5373847 1.9871464
0.28856021 3.537425 1.9881159
0.31018391 3.5347166 1.9876311
0.33251816 3.5397134 1.9915094
0.35414439 3.5367362 1.9910246
0.37611508 3.537106 1.9924791
0.39907816 3.546031 1.9987813
1.6587883 3.5953307 1.962276
1.688436 3.6013498 1.9710742
1.7174479 3.6055183 1.9789927
1.7493103 3.6151252 1.9899906
1.7773966 3.6164153 1.9965893
8.5725765 3.6160612 1.9871339
-8.4789276 3.6312532 1.9702574
8.4504108 3.6257482 1.9642888
3.630667 3.7809148 1.9730326
3.6838467 3.7894936 1.9890501
4.7313261 3.9392574 1.971868
4.8010654 3.9477119 1.9905403
-8.6367903 -4.0238113 2.0342648
-8.6515331 -3.9662538 2.0320008
-8.6382427 -3.8961902 2.0233567
-8.6548309 -3.8399374 2.0217102
-8.6665707 -3.7816706 2.0190346
-8.6527424 -3.7125967 2.0105963
-8.6699495 -3.6571517 2.0093615
-8.6596851 -3.5903876 2.0019524
-4.4919872 -2.9738028 2.027005
-4.4331827 -2.9741411 2.008898
-2.3481145 -2.7471099 2.0239906
-2.3188081 -2.7467577 2.0133252
-2.2895949 -2.7461498 2.0026598
-2.3672147 -2.735297 2.0259297
-1.7818221 -2.6996434 2.0338748
-1.7573551 -2.6984305 2.0248866
-1.7320533 -2.695591 2.0148408
-1.7068529 -2.6925428 2.0047951
-1.2078031 -2.6428988 2.0387874
-1.1858485 -2.6375296 2.029078
-1.1669898 -2.6387491 2.0245087
-1.146199 -2.6353192 2.0165129
-1.1261392 -2.6332436 2.0096591
-1.106148 -2.6310215 2.0028055
-0.42391324 -2.5729504 2.0360239
-0.40848759 -2.5778451 2.0378618
-0.39183354 -2.5748329 2.0335734
-0.37545916 -2.573278 2.0305102
-0.35128248 -2.5730877 2.0277534
-0.32654175 -2.5679913 2.0213206
-0.31068432 -2.5691619 2.0207081
-0.29464564 -2.5686641 2.0188701
-0.27025419 -2.5641799 2.0133564
-0.24686435 -2.5689316 2.0151944
-0.23074561 -2.5664618 2.0121312
-0.21447015 -2.561528 2.00723
-0.19832455 -2.5572796 2.0029416
0.62834918 -2.483542 2.0004911
0.65138113 -2.4784055 2.0011039
0.67541546 -2.476892 2.0047796
0.69209224 -2.478029 2.009068
0.70597762 -2.469177 2.0053921
0.72289419 -2.4708662 2.0102932
0.74847662 -2.4735484 2.017951
0.77179718 -2.4684546 2.0194829
0.78692883 -2.4636724 2.0194829
0.81106085 -2.4608145 2.0231586
0.83621991 -2.460741 2.029285
0.85441524 -2.4645231 2.0366366
0.87084079 -2.4629591 2.0396998
0.88593686 -2.4575694 2.0396998
1.5272099 -2.4072258 2.0005209
1.5490614 -2.4088523 2.0096591
1.5691957 -2.4075515 2.0165129
1.5880139 -2.4040396 2.0216532
1.6073048 -2.4010694 2.0273645
1.6270801 -2.3986316 2.0336471
2.1530809 -2.3487349 2.0037374
2.1784279 -2.347295 2.0137832
2.2044196 -2.3462508 2.0243578
2.232821 -2.3474343 2.0370471
2.7300439 -2.3047101 2.0012052
2.7495098 -2.2923939 2.0050836
3.0279293 -1.924302 2.0094469
3.0752587 -1.927972 2.0327168
12.488073 -1.4608589 2.0382054
6.2264805 -1.2323937 2.0321012
5.2210193 -1.1958523 2.0155141
6.2254958 -1.1925528 2.0293906
17.905331 -0.77399337 2.0043826
17.927622 -0.66477543 2.0063508
17.915468 -0.55427051 2.0046015
17.910582 -0.44413629 2.0037267
17.904024 -0.33406445 2.0027428
17.891823 -0.22402795 2.0012121
-9.0925093 2.3336618 2.0046279
-9.108304 2.3973749 2.0112138
-9.0972023 2.4542363 2.012037
-9.0753689 2.5081856 2.0105963
-9.0654583 2.5654216 2.0118313
-3.2220681 2.5608795 2.0388212
-3.1943977 2.5710335 2.0313427
-3.1653318 2.5798106 2.0229843
-3.1452858 2.5957561 2.0203447
-3.1361923 2.6207623 2.024744
-3.1296535 2.6480739 2.0309029
-7.0373726 2.7598572 2.0116682
-5.6935444 2.859127 2.0396302
-5.6274657 2.8693292 2.0224638
-5.5547028 2.8753235 2.002888
6.9642835 2.939419 2.0116682
-4.5077729 2.960079 2.0290942
-4.4778171 2.9798954 2.0238712
-4.4617805 3.0088863 2.0249157
-4.4502015 3.0409648 2.0280495
-4.4291458 3.0666132 2.027005
-4.3734031 3.0679016 2.0102909
-4.3338618 3.0800221 2.0008893
2.6237211 3.1008513 2.0124264
2.6608028 3.1058421 2.0260637
-2.53706 3.228302 2.0339823
-2.475395 3.2306867 2.0163856
-2.5166531 3.2430992 2.0335422
-2.453357 3.2429507 2.0146258
-2.3979123 3.2518578 2.0018682
2.358875 3.2869198 2.0045078
2.3661616 3.3401799 2.0278234
-1.2926537 3.36731 2.0201123
-1.2725855 3.3768148 2.0210819
-1.2485006 3.3755376 2.0157492
-1.2223884 3.3683381 2.0070229
-1.2011104 3.3741274 2.0060532
2.3564231 3.3700948 2.0370617
-1.325405 3.3902647 2.0385344
-1.1824046 3.3872132 2.0094469
-1.1596141 3.3886127 2.0060532
-1.1390786 3.3964934 2.0065382
0.42134258 3.5478582 2.0012052
0.44342825 3.5478101 2.0026598
0.46586946 3.5502257 2.0055685
0.48800072 3.5499001 2.0070229
0.51039362 3.5511677 2.0094469
0.53359675 3.5574844 2.0147796
0.55743527 3.5671062 2.0220513
0.58029199 3.5696623 2.025445
0.60291046 3.5703468 2.027869
0.62495697 3.5674417 2.0283537
0.64808136 3.570425 2.032232
0.67013806 3.567241 2.0327168
0.69434321 3.575083 2.0395041
1.8031598 3.612674 2.0005486
1.8321894 3.6151621 2.0080271
1.8600855 3.6150336 2.0141859
1.8892951 3.6170866 2.0216646
1.9219626 3.6252656 2.0326624
-8.6135044 3.7515717 2.0062745
3.7707925 3.8316448 2.0228264
-8.6914387 3.8491156 2.029531
4.8799667 3.9626727 2.0128264
4.9510484 3.9702485 2.0317998
6.4161782 4.1233878 2.029428
11.705263 4.516983 2.0339503
11.619428 4.5659604 2.0240226
-8.6141939 -4.5404253 2.0783083
-8.5976019 -4.464478 2.067812
-8.5943422 -4.3960385 2.0606086
-8.5905685 -4.3278074 2.053405
-8.5915403 -4.2623992 2.0474367
-8.6069822 -4.2044463 2.0449669
-8.6158628 -4.1434951 2.0410564
-8.6375866 -4.0888758 2.0402331
-4.5595841 -2.9784954 2.0489421
-3.7914095 -2.8994341 2.073782
-3.740864 -2.8973141 2.0560272
-2.4779143 -2.7589591 2.0763483
-2.4452748 -2.7564394 2.0632589
-2.4023898 -2.7417786 2.0414431
-1.8595432 -2.7076828 2.0650694
-1.8319488 -2.7028766 2.0529089
-1.8068415 -2.7013628 2.0433919
-1.2558912 -2.6612921 2.0644886
-1.3112078 -2.6509717 2.0747693
-1.2913269 -2.6515853 2.0690577
-1.2746782 -2.6587186 2.0684867
-1.2329763 -2.6547995 2.053637
-0.59318203 -2.5960567 2.0789084
-0.57638747 -2.5957892 2.0758452
-0.55133033 -2.5955579 2.0715568
-0.52490741 -2.588141 2.0617547
-0.50734645 -2.5827811 2.0550156
-0.4903124 -2.579633 2.0501146
-0.47376314 -2.5787055 2.0470514
-0.44926965 -2.5786607 2.0436819
0.93864012 -2.4607797 2.0562408
-2.7780771 -2.4485321 2.0734394
0.90181869 -2.4543121 2.0415375
0.92019224 -2.4576125 2.0488892
0.95515484 -2.4586568 2.059304
0.9710964 -2.4549539 2.061142
0.98909819 -2.456279 2.0672684
1.0071527 -2.4574752 2.0733948
1.0303414 -2.4495449 2.07462
1.6510737 -2.4021273 2.0450699
1.6723542 -2.4013782 2.0530658
4.8975945 -2.4162796 2.0545135
1.6908461 -2.3964353 2.0576351
1.7098178 -2.3920231 2.0627751
1.728317 -2.3868036 2.0673444
1.7487597 -2.3840935 2.074198
4.8946185 -2.3775861 2.0472012
2.2601414 -2.3471346 2.0486791
2.2875416 -2.3465877 2.0603111
2.3090549 -2.3397539 2.0666556
2.3311703 -2.3333442 2.0735292
4.8930449 -2.339829 2.040585
4.9251232 -2.3181405 2.0478976
3.1093528 -1.9228578 2.0472605
5.2968893 -1.1790521 2.0416298
6.2983327 -1.1664728 2.050472
5.3480072 -1.1560242 2.0583436
7.4373803 2.4110489 2.079663
-3.3228774 2.5425942 2.0722549
-3.2944331 2.5530379 2.0643363
-3.26104 2.5593493 2.0533385
-3.143363 2.692924 2.0502591
-7.3236856 2.7176425 2.0778871
-7.2399149 2.7372272 2.0591123
-3.1478169 2.7303948 2.0638964
-7.1643062 2.7590144 2.0426211
-3.1431539 2.7603204 2.071815
-3.1221297 2.7759755 2.0691755
-5.841383 2.8441205 2.0793839
-5.7802238 2.8583612 2.0640244
-4.6267042 2.9575305 2.0656562
-4.5620461 2.955802 2.0451119
2.6986322 3.1111724 2.0401411
2.7307029 3.109405 2.0498192
2.7789578 3.1254864 2.0713751
-2.691395 3.216435 2.0770938
-2.6255913 3.2172248 2.0568578
-2.5945261 3.2192941 2.0480595
-2.6618793 3.2211235 2.0696154
-2.5674508 3.2260211 2.0423405
-1.5775228 3.3493233 2.0729547
-1.5506837 3.3454523 2.0647132
-1.5294007 3.3533127 2.0637436
-1.502704 3.3490708 2.0555022
-1.4771776 3.3470278 2.0487151
-1.4555671 3.353622 2.0472605
-1.4339314 3.3600771 2.0458062
-1.4112552 3.3639741 2.0428975
2.3566029 3.4148014 2.0550981
2.3527849 3.4544389 2.0700552
0.76258165 3.573673 2.0462911
0.85594463 3.5785527 2.0603499
0.72055805 3.5921957 2.0516238
0.74152428 3.5825677 2.0487151
0.7869314 3.5800326 2.0525935
0.81100255 3.5845213 2.0579262
0.83337724 3.5811815 2.0588956
0.88038611 3.583427 2.0661676
0.90662783 3.5949206 2.0758634
1.9513994 3.6268513 2.0401411
1.9809278 3.6282115 2.0476196
2.014895 3.6372027 2.0594974
2.0468481 3.6419976 2.0691755
2.0753796 3.6402943 2.0753343
3.8517771 3.8662267 2.0531206
3.922678 3.8893936 2.0778434
-8.8202553 3.9710491 2.0647247
5.01792 3.9735467 2.0489662
5.0842662 3.975585 2.0658314
6.6416216 4.0975575 2.0758574
6.4920015 4.1160626 2.0451581
6.5564947 4.1007786 2.0573363
-8.5498123 -4.9168739 2.1046522
-8.5747128 -4.861424 2.1034174
-8.588151 -4.7996459 2.0995069
-8.6002979 -4.7374144 2.0953906
-8.6163054 -4.6775494 2.0923035
-8.6137819 -4.6079707 2.0848942
-4.729455 -3.0073593 2.1077895
-4.6597056 -3.003299 2.0851557
-3.9114056 -2.9158711 2.1191556
-3.8619153 -2.9159977 2.1021898
-2.5729814 -2.7608876 2.1127076
-2.5106764 -2.7611814 2.0894377
-2.5405977 -2.7598863 2.1001031
-1.9923707 -2.7185371 2.1184707
-1.9642165 -2.7148888 2.1063101
-1.9406193 -2.7172167 2.0989079
-1.9160904 -2.7179697 2.0904484
-1.890172 -2.7164335 2.0804026
-1.3991416 -2.6623306 2.1096089
-1.3797632 -2.6650324 2.1050396
-1.4169947 -2.6565936 2.1118934
-1.3559343 -2.6588194 2.0936167
-1.3340739 -2.6560833 2.0850496
-0.76505369 -2.6018176 2.1168919
-0.74776769 -2.6019044 2.1132159
-0.73050952 -2.6018772 2.1095402
-0.71286279 -2.6002116 2.1046391
-0.69607943 -2.6014822 2.1021886
-0.6791082 -2.6018798 2.0991254
-0.66157502 -2.5998693 2.0942242
-0.64352286 -2.5954399 2.0874853
-0.6262902 -2.5939608 2.0831969
-0.60946059 -2.5939071 2.0801337
-2.7652643 -2.5605595 2.1097989
-2.7615688 -2.5258274 2.0952551
-2.7653372 -2.4982767 2.0865288
-2.7721338 -2.4736881 2.0802267
-2.8826566 -2.4479585 2.1170709
-2.8536596 -2.45362 2.1068902
-2.8247023 -2.459018 2.0967095
1.0572333 -2.4501286 2.0831969
1.0754273 -2.4508309 2.0893233
1.0914124 -2.4463511 2.091161
1.1093442 -2.4460845 2.0966749
1.1259887 -2.4428196 2.0997379
1.1436418 -2.4415891 2.1046391
1.1633625 -2.4445143 2.1132159
1.1817842 -2.4444437 2.1193423
1.1960632 -2.4357278 2.1181171
1.770214 -2.3825393 2.0821941
1.7927026 -2.3821223 2.0913322
1.8137585 -2.3795612 2.098757
1.8338464 -2.3755319 2.1050396
1.8585062 -2.3771632 2.1164625
2.3557091 -2.3291368 2.0825174
2.3778536 -2.3223448 2.0893908
2.4091702 -2.324204 2.1041951
3.6659515 -2.2109075 2.1197658
2.7420907 -1.9583671 2.1179419
4.6466436 -1.2735929 2.0931151
4.6925435 -1.2552569 2.110081
4.7161622 -1.2306116 2.1171827
-3.3410294 -0.4313547 2.1174133
-3.3335042 -0.4095996 2.1110685
-3.3367977 -0.38923663 2.1115973
-3.4450629 2.5368867 2.1184459
-3.4135914 2.5461705 2.1087677
-3.3742521 2.549212 2.0942507
-7.4402089 2.7090402 2.1057954
7.3851767 2.8015683 2.1007211
-5.9146233 2.8350039 2.0989597
-3.1664624 2.8503344 2.1096478
7.3714561 2.8482254 2.1017361
7.3556414 2.8941107 2.1022434
7.2910562 2.9204786 2.0890505
-4.7962317 2.9429252 2.1161463
-4.7438517 2.9510159 2.1011734
-4.6860027 2.9550769 2.0837629
2.8353198 3.149771 2.0986497
2.8745472 3.1542253 2.113167
3.6842203 3.1939051 2.1179719
-2.8235068 3.2107656 2.1171262
-2.7831337 3.2043071 2.1017292
-2.7505512 3.2063327 2.092051
-2.7197914 3.210135 2.0836926
3.6659343 3.2176635 2.1187611
3.6344488 3.229717 2.1120536
-1.7798687 3.3427529 2.1199796
-1.7532251 3.3419957 2.1127076
-1.7290692 3.3456988 2.1083446
-1.7029486 3.345335 2.1015575
-1.6804284 3.3518126 2.0991335
-1.6040897 3.3522015 2.0807114
-1.659443 3.3612764 2.0986488
-1.6349605 3.3635306 2.0938008
2.3465657 3.4911752 2.0832527
2.3419681 3.5309587 2.0982099
2.3389363 3.5738227 2.1149266
0.95336193 3.5936701 2.081681
0.97837281 3.5987258 2.0879831
0.93151236 3.6002989 2.0821657
1.0037159 3.6044521 2.0947704
1.0267713 3.6015904 2.0967095
1.0517863 3.6052992 2.1025269
1.0771351 3.6096745 2.1088293
1.1043613 3.6197305 2.1185253
2.1084597 3.6461532 2.0858922
2.1407816 3.6501927 2.0955703
2.1668088 3.6431644 2.0990896
2.1988559 3.6459532 2.1083279
3.975929 3.8941195 2.0931647
4.0145659 3.8839939 2.1008253
4.0755873 3.8949187 2.1199768
5.1591258 3.9833696 2.0860095
5.2350287 3.990962 2.1064889
-8.9576855 4.0991836 2.1021824
6.7096024 4.0828824 2.0890505
-17.329062 6.8119164 2.0811327
-4.869617 -3.0132449 2.1530566
-4.8057795 -3.014662 2.1332088
-3.9832354 -2.9315925 2.147958
-2.6810985 -2.772815 2.1587629
-2.6422954 -2.7664359 2.1413105
-2.6042726 -2.7603221 2.1243427
-2.0780494 -2.7286885 2.1554813
-2.0475028 -2.7230644 2.1412058
-2.0186207 -2.7192142 2.1285164
-2.7492239 -2.6740162 2.1466432
-1.5071908 -2.6660495 2.1478751
-1.4864125 -2.6673577 2.1415927
-1.462122 -2.6620343 2.1301699
-2.760536 -2.6522474 2.1427648
-1.4395145 -2.6594024 2.1210315
-2.7723186 -2.631043 2.1393712
-0.87456679 -2.6146274 2.1518121
-0.85555923 -2.61093 2.1444604
-0.83783531 -2.6108613 2.140172
-0.80956137 -2.6048589 2.1291447
-0.78350252 -2.6054015 2.1236308
-2.7724638 -2.5990222 2.1272514
-2.954901 -2.4475653 2.1476128
-2.9177203 -2.447094 2.1316147
1.2145174 -2.4354141 2.1242435
1.2319403 -2.4328504 2.1285319
1.248292 -2.4280562 2.1309824
1.2664615 -2.4266555 2.1364961
1.2898463 -2.4348977 2.1505866
1.3073848 -2.4318089 2.1548753
1.3323724 -2.4245088 2.1591637
1.8796855 -2.3740776 2.1238873
1.9029521 -2.3733819 2.1335967
1.9309399 -2.3782227 2.1484463
1.9543637 -2.3771045 2.1581557
2.4442868 -2.3292773 2.1221719
2.4789374 -2.333425 2.1396196
2.5081334 -2.3320351 2.1523089
6.3071852 -2.2064016 2.13781
3.6871684 -2.19296 2.1241648
3.7292223 -2.1870944 2.1404417
6.2998571 -2.1605492 2.1308832
2.7373159 -2.0582087 2.1523089
2.7355764 -2.0307558 2.1412058
2.7336037 -2.0034022 2.1301026
2.7355261 -1.9791331 2.1221719
2.7755682 -1.9566561 2.1343324
2.7917035 -1.9424956 2.1375048
2.8196676 -1.9363738 2.1496654
4.0987792 -1.366457 2.139122
4.0746431 -1.3306986 2.1224053
4.1015515 -1.3116837 2.1320834
4.7743874 -1.2145483 2.1396723
4.7942371 -1.1883217 2.1451962
4.7916121 -1.1565138 2.140856
-2.9977658 -0.40982214 2.1221738
-3.0026658 -0.39174029 2.1238873
-3.0041983 -0.3732073 2.123316
-2.712244 -0.37502247 2.1371088
-3.0080621 -0.35496008 2.1244583
-2.7112565 -0.34948742 2.1337392
-2.460922 -0.34504524 2.1529007
-2.7186873 -0.32503539 2.1371088
-2.4652455 -0.3302421 2.1548586
-2.2128191 -0.32925192 2.1492572
-2.4574559 -0.31385505 2.1463745
-2.2171772 -0.30906874 2.1506393
-2.4600875 -0.29886234 2.147027
-2.2206545 -0.28874657 2.1513305
4.4740443 2.1633799 2.1582162
4.4565625 2.1887648 2.1562436
4.4455152 2.2172997 2.1574273
3.7450736 2.2308724 2.1580384
3.7251663 2.2500932 2.1545191
5.2145734 2.3232234 2.1464405
5.1891203 2.3501453 2.1419139
5.1814141 2.3850784 2.1446996
-3.5160735 2.5232031 2.1426413
-3.4765487 2.5273123 2.1281242
-7.5596313 2.7000842 2.134465
-6.0787134 2.8224187 2.1441345
-5.9974566 2.8295681 2.1218483
-3.1648486 2.884222 2.1202056
-4.9076619 2.9289865 2.1488781
-4.8535023 2.9372127 2.1332088
-3.1715207 2.92611 2.1364825
-3.1732013 2.9638982 2.1496799
-2.9532716 3.1965561 2.1545191
-2.9227018 3.2026803 2.1466005
-2.8933716 3.2098842 2.1395619
-2.8580894 3.2101436 2.1281242
-1.9501835 3.3114679 2.1510062
-1.9205985 3.3074918 2.1408257
-1.8998331 3.3184552 2.1403408
-1.8747036 3.3216732 2.1350081
-1.8496064 3.324708 2.1296754
-1.8270675 3.3321607 2.1272514
-1.8032587 3.3371542 2.123373
1.3856511 3.5751724 2.1461585
1.4091656 3.5706716 2.1485822
1.436586 3.5757568 2.1568239
1.1764771 3.6162579 2.1287057
1.2002959 3.6139522 2.1316147
1.2514069 3.6187916 2.1432495
2.3305967 3.6092353 2.1272442
1.1291511 3.621237 2.123373
1.1532054 3.6200747 2.1267667
1.2272158 3.6206028 2.1398561
1.2782372 3.6242442 2.1510062
1.3057728 3.6311493 2.1597326
2.3281796 3.6545277 2.1452808
2.2460022 3.673007 2.1316435
2.2760637 3.6713715 2.1386821
2.3052344 3.6679838 2.144841
4.1287141 3.8975155 2.1349497
4.1861372 3.9034429 2.1520119
5.3157878 4.0012131 2.1287751
5.3907452 4.0060706 2.1486521
-9.0166664 4.1932607 2.1217346
-9.0880995 4.2944841 2.1443739
-4.9568176 -3.0253248 2.1830025
-4.0972953 -2.9387457 2.1893861
-4.0286474 -2.9270885 2.1625564
-2.7237477 -2.782573 2.1791244
-2.7413855 -2.7664294 2.1796091
-2.7508779 -2.7421439 2.1737916
-2.1873496 -2.730546 2.198308
-2.1621332 -2.7332611 2.1898484
-2.1306999 -2.7277403 2.1750443
-2.104079 -2.7279882 2.1649985
-2.7620447 -2.7196882 2.1694283
-1.5822601 -2.6824105 2.183857
-1.5616479 -2.6849709 2.1781456
-1.6244156 -2.6782372 2.1964221
-1.6024785 -2.6789935 2.1889973
-1.5345364 -2.675983 2.163296
-1.0060667 -2.6270797 2.1953092
-0.98909515 -2.6309836 2.1934712
-0.96801627 -2.6236529 2.1824439
-0.93073046 -2.6211803 2.1708038
-0.91307294 -2.6223624 2.1671278
-0.94706482 -2.6161635 2.1714163
-0.89416164 -2.6196859 2.1603889
-0.0045961952 -2.538784 2.1992381
0.010974029 -2.5372491 2.1979327
0.04982987 -2.5341191 2.1956487
0.073014259 -2.5286422 2.1914065
0.088609383 -2.5304182 2.1933644
0.11192843 -2.5302405 2.1940169
0.13541678 -2.5328977 2.1972802
0.15081903 -2.5297503 2.1953223
0.16603708 -2.5242412 2.1914065
0.18135782 -2.5209079 2.1894484
0.25922498 -2.5201876 2.1946695
0.1968224 -2.5197477 2.1894484
0.21227957 -2.5184925 2.1894484
0.22752246 -2.514879 2.1874905
0.24309598 -2.5149438 2.1887958
0.2745184 -2.5170434 2.1933644
0.28995752 -2.5153115 2.1933644
0.30584511 -2.5172455 2.1966274
0.32845652 -2.5101805 2.193038
0.35170472 -2.5081882 2.1940169
0.36730868 -2.5074823 2.1953223
0.38303211 -2.5074279 2.1972802
-3.0466077 -2.461159 2.1917288
-3.0124996 -2.464293 2.1781547
1.3608354 -2.423177 2.1689658
1.3903692 -2.4232099 2.1802995
1.4208086 -2.4243028 2.1928585
1.9762697 -2.3738964 2.1661518
1.9982096 -2.3705084 2.1741476
2.0207152 -2.3675644 2.1827147
2.0427227 -2.3638122 2.1907108
2.5330272 -2.3263574 2.1612973
2.5579453 -2.3204615 2.1702857
2.5816212 -2.3132148 2.1782165
2.6173854 -2.3164475 2.1961932
3.7775626 -2.1843891 2.160238
2.7365909 -2.1647649 2.192492
3.8189859 -2.1771715 2.176075
3.8596787 -2.1690876 2.1914721
2.735101 -2.1364441 2.18086
2.7367287 -2.1108141 2.1718719
2.7367945 -2.0842168 2.1618261
2.8567982 -1.9361682 2.1686995
2.8869739 -1.9308635 2.1824462
-2.4834952 -0.36377883 2.1744378
-2.2371786 -0.34694141 2.1748297
-2.2525055 -0.27886787 2.1803589
3.7679815 2.2133124 2.1633174
-7.7696862 2.6680276 2.1836851
-7.6728296 2.6875262 2.1613586
-6.2616329 2.81443 2.1956336
-6.1748524 2.821111 2.1715405
-5.0714173 2.901439 2.1962345
-5.0137844 2.9094572 2.1791723
-4.9602857 2.919255 2.163851
-3.1712735 2.9987328 2.1606779
-3.1742284 3.0386207 2.1751952
2.3901489 3.0915818 2.1868811
2.4230855 3.0947683 2.1994855
2.3838646 3.1228793 2.1985159
-3.0883877 3.1823876 2.1949914
-3.0563695 3.1883161 2.186193
-3.0231597 3.1926682 2.1765149
-2.9881713 3.1947665 2.1655169
-2.1338961 3.2914441 2.1951225
-2.1146033 3.3059487 2.1960921
-2.0919433 3.3151639 2.1936681
-2.0623128 3.3130903 2.1839721
-2.0373659 3.3182304 2.1791244
-1.9812354 3.3174572 2.1626413
-2.0110738 3.3209455 2.172822
-0.63918692 3.441468 2.1993656
-0.61805844 3.4453251 2.1993656
-0.59647137 3.4465437 2.1977794
-0.57447273 3.4451156 2.194607
-0.55291855 3.4460616 2.1930208
-0.53176349 3.4493895 2.1930208
-0.51058847 3.4525874 2.1930208
-0.48939416 3.4556553 2.1930208
-0.46783876 3.4560699 2.1914346
-0.44596952 3.4538248 2.1882622
-0.42508054 3.4590235 2.1898484
-0.40365091 3.4598806 2.188791
-0.38288164 3.4665103 2.1914346
-0.36186945 3.4713268 2.1930208
-0.34047979 3.4726372 2.192492
-0.31916568 3.4746609 2.192492
-0.29783955 3.4765539 2.192492
-0.27650222 3.4783161 2.192492
-0.25515446 3.4799471 2.192492
-0.23368262 3.4797535 2.1914346
-0.21217072 3.4785802 2.1898484
-0.1909631 3.4823592 2.1914346
-0.16959216 3.4834652 2.1914346
-0.14817837 3.4835923 2.1909058
